0.0000000e+00   0.0000000e+00   0.0000000e+00   0.0000000e+00   0.0000000e+00   0.0000000e+00   0.0000000e+00   0.0000000e+00   0.0000000e+00   0.0000000e+00   0.0000000e+00   0.0000000e+00   0.0000000e+00   0.0000000e+00   0.0000000e+00   0.0000000e+00   0.0000000e+00   0.0000000e+00   0.0000000e+00   0.0000000e+00   0.0000000e+00   0.0000000e+00   0.0000000e+00   0.0000000e+00   8.8000000e-01   2.0000000e+00   3.3600000e+00   4.0800000e+00   5.5250000e+00   7.7820000e+00   1.0138435e+01   1.1820391e+01   1.2842803e+01   1.4729309e+01   1.9761953e+01   2.6500941e+01   3.4135200e+01   3.9892286e+01   4.4570743e+01   4.7458400e+01   4.8921714e+01   4.9430857e+01   5.0516400e+01   5.2102286e+01   5.3940857e+01   5.5168457e+01   5.6034000e+01   5.9904429e+01   6.7113095e+01   7.5221667e+01   8.0831667e+01   8.3655000e+01   8.6139167e+01   8.8614167e+01   9.0756875e+01   9.2581042e+01   9.4116458e+01   9.5686250e+01   9.7256042e+01   9.8814375e+01   1.0036125e+02   1.0190812e+02   1.0384687e+02   1.0629056e+02   1.0935222e+02   1.1275306e+02   1.1638000e+02   1.2012000e+02   1.2386000e+02   1.2760000e+02   1.3134000e+02   1.3508000e+02   1.3759429e+02   1.3779333e+02   1.3567714e+02   1.3247143e+02   1.2926571e+02   1.2626096e+02   1.2406007e+02   1.2326592e+02   1.2441331e+02   1.2708085e+02   1.3062488e+02   1.3422808e+02   1.3770896e+02   1.4102674e+02   1.4422220e+02   1.4670552e+02   1.4689135e+02   1.4386575e+02   1.3790029e+02   1.3066183e+02   1.2310514e+02   1.1689894e+02   1.1435840e+02   1.1219175e+02   1.1100787e+02   1.0849162e+02   1.0793475e+02   1.0742225e+02   1.0703244e+02   1.0681794e+02   1.0673178e+02   1.0663846e+02   1.0647497e+02   1.0624390e+02   1.0600244e+02   1.0576098e+02   1.0552029e+02   1.0528353e+02   1.0505302e+02   1.0482955e+02   1.0426764e+02   1.0336493e+02   1.0211986e+02   1.0087478e+02   9.9648529e+01   9.8565792e+01   9.7941303e+01   9.7834757e+01   9.8121455e+01   9.8527892e+01   9.8975556e+01   9.9464444e+01   9.9953333e+01   1.0044052e+02   1.0090650e+02   1.0134701e+02   1.0157033e+02   1.0140258e+02   1.0084800e+02   1.0026532e+02   9.9847965e+01   9.9761251e+01   9.9839860e+01   1.0024911e+02   1.0083277e+02   1.0083093e+02   9.8264151e+01   9.2983814e+01   8.5749840e+01   7.8376320e+01   4.9793040e+01
0.0000000e+00   0.0000000e+00   0.0000000e+00   0.0000000e+00   0.0000000e+00   0.0000000e+00   0.0000000e+00   0.0000000e+00   0.0000000e+00   0.0000000e+00   0.0000000e+00   0.0000000e+00   0.0000000e+00   0.0000000e+00   0.0000000e+00   0.0000000e+00   0.0000000e+00   0.0000000e+00   0.0000000e+00   0.0000000e+00   0.0000000e+00   0.0000000e+00   0.0000000e+00   0.0000000e+00   0.0000000e+00   0.0000000e+00   0.0000000e+00   0.0000000e+00   7.2500000e-01   2.2620000e+00   3.9180000e+00   4.9386522e+00   5.2587110e+00   6.0615345e+00   9.5606824e+00   1.6304052e+01   2.4591286e+01   3.2238171e+01   3.7860743e+01   4.1681829e+01   4.3597714e+01   4.4422714e+01   4.5787971e+01   4.7729314e+01   4.9907314e+01   5.1474343e+01   5.2498286e+01   5.6062286e+01   6.3312857e+01   7.2160000e+01   7.8815000e+01   8.2316667e+01   8.4736667e+01   8.7101667e+01   8.9198542e+01   9.1045625e+01   9.2661250e+01   9.4276875e+01   9.5881042e+01   9.7473750e+01   9.9055000e+01   1.0063625e+02   1.0271097e+02   1.0539222e+02   1.0879306e+02   1.1242000e+02   1.1616000e+02   1.1990000e+02   1.2364000e+02   1.2738000e+02   1.3112000e+02   1.3486000e+02   1.3751048e+02   1.3784571e+02   1.3586571e+02   1.3266000e+02   1.2945429e+02   1.2624857e+02   1.2334430e+02   1.2134437e+02   1.2145537e+02   1.2346661e+02   1.2673441e+02   1.2997064e+02   1.3308455e+02   1.3603536e+02   1.3866723e+02   1.4019376e+02   1.4028770e+02   1.3823171e+02   1.3385747e+02   1.2746768e+02   1.2001706e+02   1.1419673e+02   1.1204204e+02   1.1009625e+02   1.0874737e+02   1.0606612e+02   1.0550925e+02   1.0497456e+02   1.0458888e+02   1.0437850e+02   1.0432125e+02   1.0424353e+02   1.0409563e+02   1.0387756e+02   1.0363610e+02   1.0339776e+02   1.0316413e+02   1.0293831e+02   1.0271954e+02   1.0250782e+02   1.0194708e+02   1.0103500e+02   9.9770000e+01   9.8523508e+01   9.7332540e+01   9.6234111e+01   9.5554924e+01   9.5322392e+01   9.5499497e+01   9.5782257e+01   9.6106243e+01   9.6471455e+01   9.6877892e+01   9.7325556e+01   9.7799167e+01   9.8182843e+01   9.8218694e+01   9.8022849e+01   9.7669965e+01   9.7583251e+01   9.7661860e+01   9.8071111e+01   9.8645684e+01   9.9386084e+01   1.0013961e+02   1.0070049e+02   9.9184351e+01   9.4950605e+01   8.8205040e+01   8.0831520e+01   5.1429840e+01
0.0000000e+00   0.0000000e+00   0.0000000e+00   0.0000000e+00   0.0000000e+00   0.0000000e+00   0.0000000e+00   0.0000000e+00   0.0000000e+00   0.0000000e+00   0.0000000e+00   0.0000000e+00   0.0000000e+00   0.0000000e+00   0.0000000e+00   0.0000000e+00   0.0000000e+00   0.0000000e+00   0.0000000e+00   0.0000000e+00   0.0000000e+00   0.0000000e+00   0.0000000e+00   0.0000000e+00   0.0000000e+00   0.0000000e+00   0.0000000e+00   0.0000000e+00   0.0000000e+00   5.7200000e-01   1.0230000e+00   1.3530000e+00   7.8100000e-01   3.3000000e-01   2.1516000e+00   6.9592286e+00   1.5161457e+01   2.3404543e+01   3.0359057e+01   3.4333829e+01   3.6821714e+01   3.8331071e+01   4.0486338e+01   4.2902567e+01   4.5610610e+01   4.7599200e+01   4.8894686e+01   5.2220143e+01   5.9164286e+01   6.8750000e+01   7.6422500e+01   8.0914167e+01   8.3251667e+01   8.5534167e+01   8.7587500e+01   8.9430000e+01   9.1080000e+01   9.2730000e+01   9.4368542e+01   9.5995625e+01   9.7667047e+01   9.9394266e+01   1.0171881e+02   1.0474072e+02   1.0841496e+02   1.1220000e+02   1.1594000e+02   1.1968000e+02   1.2342000e+02   1.2716000e+02   1.3090000e+02   1.3464000e+02   1.3742667e+02   1.3789810e+02   1.3605429e+02   1.3284857e+02   1.2964286e+02   1.2643714e+02   1.2323143e+02   1.2032986e+02   1.1887731e+02   1.1950411e+02   1.2186535e+02   1.2473460e+02   1.2748154e+02   1.3014692e+02   1.3222249e+02   1.3311842e+02   1.3283471e+02   1.3153685e+02   1.2875384e+02   1.2374311e+02   1.1692899e+02   1.1149451e+02   1.0972568e+02   1.0800075e+02   1.0648688e+02   1.0364062e+02   1.0308375e+02   1.0252877e+02   1.0214377e+02   1.0193752e+02   1.0190469e+02   1.0184600e+02   1.0171370e+02   1.0151278e+02   1.0127680e+02   1.0104786e+02   1.0082596e+02   1.0061188e+02   1.0040250e+02   1.0019625e+02   9.9637083e+01   9.8725000e+01   9.7487762e+01   9.6315302e+01   9.5244635e+01   9.4285016e+01   9.3592714e+01   9.3259571e+01   9.3248571e+01   9.3407654e+01   9.3607963e+01   9.3849497e+01   9.4132257e+01   9.4456243e+01   9.4813816e+01   9.5159057e+01   9.5298548e+01   9.5405251e+01   9.5483860e+01   9.5893111e+01   9.6467684e+01   9.7207579e+01   9.7947474e+01   9.8689894e+01   9.9447970e+01   1.0022271e+02   9.9755686e+01   9.6568532e+01   9.0660240e+01   8.3286720e+01   5.3066640e+01
0.0000000e+00   0.0000000e+00   0.0000000e+00   0.0000000e+00   0.0000000e+00   0.0000000e+00   0.0000000e+00   0.0000000e+00   0.0000000e+00   0.0000000e+00   0.0000000e+00   0.0000000e+00   0.0000000e+00   0.0000000e+00   0.0000000e+00   0.0000000e+00   0.0000000e+00   0.0000000e+00   0.0000000e+00   0.0000000e+00   0.0000000e+00   0.0000000e+00   0.0000000e+00   0.0000000e+00   0.0000000e+00   0.0000000e+00   0.0000000e+00   0.0000000e+00   0.0000000e+00   0.0000000e+00   0.0000000e+00   0.0000000e+00   0.0000000e+00   0.0000000e+00   0.0000000e+00   1.9564286e+00   6.6078571e+00   1.4417857e+01   2.1281071e+01   2.6474643e+01   2.9671714e+01   3.2088571e+01   3.4565038e+01   3.7174500e+01   4.0557943e+01   4.3378762e+01   4.5177943e+01   4.8378000e+01   5.5015714e+01   6.4686667e+01   7.3185833e+01   7.8630833e+01   8.1511667e+01   8.3902500e+01   8.5937500e+01   8.7780000e+01   8.9430000e+01   9.1080000e+01   9.2785797e+01   9.4547391e+01   9.6420580e+01   9.8349565e+01   1.0084735e+02   1.0405407e+02   1.0792469e+02   1.1187865e+02   1.1570874e+02   1.1946000e+02   1.2320000e+02   1.2694000e+02   1.3068000e+02   1.3442000e+02   1.3734286e+02   1.3795048e+02   1.3624286e+02   1.3303714e+02   1.2983143e+02   1.2662571e+02   1.2332222e+02   1.1982317e+02   1.1693094e+02   1.1564344e+02   1.1650853e+02   1.1872385e+02   1.2138923e+02   1.2385801e+02   1.2534376e+02   1.2564986e+02   1.2497294e+02   1.2409941e+02   1.2248331e+02   1.1906381e+02   1.1341659e+02   1.0879230e+02   1.0740932e+02   1.0590525e+02   1.0422638e+02   1.0121513e+02   1.0064327e+02   1.0006989e+02   9.9678707e+01   9.9484688e+01   9.9470938e+01   9.9438155e+01   9.9332236e+01   9.9158181e+01   9.8933933e+01   9.8716728e+01   9.8505783e+01   9.8298750e+01   9.8092500e+01   9.7886250e+01   9.7327083e+01   9.6452016e+01   9.5298063e+01   9.4255159e+01   9.3314048e+01   9.2437714e+01   9.1718000e+01   9.1320429e+01   9.1245000e+01   9.1362857e+01   9.1480714e+01   9.1626726e+01   9.1842119e+01   9.2126892e+01   9.2427917e+01   9.2813071e+01   9.3178704e+01   9.3707276e+01   9.4289684e+01   9.5029579e+01   9.5769474e+01   9.6509368e+01   9.7249263e+01   9.7995218e+01   9.8757840e+01   9.9537128e+01   9.9838612e+01   9.7698049e+01   9.2836349e+01   8.5741920e+01   5.4703440e+01
0.0000000e+00   0.0000000e+00   0.0000000e+00   0.0000000e+00   0.0000000e+00   0.0000000e+00   0.0000000e+00   0.0000000e+00   0.0000000e+00   0.0000000e+00   0.0000000e+00   0.0000000e+00   0.0000000e+00   0.0000000e+00   0.0000000e+00   0.0000000e+00   0.0000000e+00   0.0000000e+00   0.0000000e+00   0.0000000e+00   0.0000000e+00   0.0000000e+00   0.0000000e+00   0.0000000e+00   0.0000000e+00   0.0000000e+00   0.0000000e+00   0.0000000e+00   0.0000000e+00   0.0000000e+00   0.0000000e+00   0.0000000e+00   0.0000000e+00   0.0000000e+00   0.0000000e+00   0.0000000e+00   1.9485714e+00   6.3092857e+00   1.2913214e+01   1.9030000e+01   2.3716786e+01   2.6055857e+01   2.7890500e+01   3.0366600e+01   3.4324400e+01   3.8297600e+01   4.1011143e+01   4.4445343e+01   5.0867143e+01   5.9970000e+01   6.8642500e+01   7.4714167e+01   7.8791667e+01   8.1944167e+01   8.4287500e+01   8.6130000e+01   8.7835797e+01   8.9597391e+01   9.1470580e+01   9.3399565e+01   9.5440145e+01   9.7536522e+01   9.9994998e+01   1.0318545e+02   1.0706282e+02   1.1125326e+02   1.1529730e+02   1.1918370e+02   1.2298000e+02   1.2672000e+02   1.3046000e+02   1.3420000e+02   1.3725905e+02   1.3800286e+02   1.3643143e+02   1.3322571e+02   1.3002000e+02   1.2671651e+02   1.2321746e+02   1.1942508e+02   1.1558717e+02   1.1270165e+02   1.1176645e+02   1.1293159e+02   1.1529692e+02   1.1737249e+02   1.1826842e+02   1.1798471e+02   1.1711118e+02   1.1623765e+02   1.1525804e+02   1.1321760e+02   1.0916161e+02   1.0587792e+02   1.0509297e+02   1.0380975e+02   1.0196587e+02   9.8779638e+01   9.8172829e+01   9.7582954e+01   9.7188691e+01   9.7020000e+01   9.7025024e+01   9.7055259e+01   9.7030407e+01   9.6923497e+01   9.6716692e+01   9.6490287e+01   9.6266230e+01   9.6042172e+01   9.5818115e+01   9.5594057e+01   9.5069289e+01   9.4280825e+01   9.3265683e+01   9.2343079e+01   9.1476000e+01   9.0627429e+01   8.9843286e+01   8.9409440e+01   8.9325893e+01   8.9528214e+01   8.9730536e+01   8.9961012e+01   9.0219643e+01   9.0468376e+01   9.0687880e+01   9.1152446e+01   9.1860949e+01   9.2765389e+01   9.3575803e+01   9.4331368e+01   9.5071263e+01   9.5811158e+01   9.6551053e+01   9.7301553e+01   9.8068720e+01   9.8852553e+01   9.9572674e+01   9.8478703e+01   9.4663594e+01   8.8197120e+01   5.6340240e+01
0.0000000e+00   0.0000000e+00   0.0000000e+00   0.0000000e+00   0.0000000e+00   0.0000000e+00   0.0000000e+00   0.0000000e+00   0.0000000e+00   0.0000000e+00   0.0000000e+00   0.0000000e+00   0.0000000e+00   0.0000000e+00   0.0000000e+00   0.0000000e+00   0.0000000e+00   0.0000000e+00   0.0000000e+00   0.0000000e+00   0.0000000e+00   0.0000000e+00   0.0000000e+00   0.0000000e+00   0.0000000e+00   0.0000000e+00   0.0000000e+00   0.0000000e+00   0.0000000e+00   0.0000000e+00   0.0000000e+00   0.0000000e+00   0.0000000e+00   0.0000000e+00   0.0000000e+00   0.0000000e+00   0.0000000e+00   1.6657143e+00   6.7807143e+00   1.3485214e+01   1.8881500e+01   2.0416000e+01   2.0861500e+01   2.2819500e+01   2.6895733e+01   3.1908171e+01   3.5946743e+01   4.0071010e+01   4.6413571e+01   5.4295000e+01   6.2515000e+01   6.8901667e+01   7.4366667e+01   7.8906667e+01   8.2230797e+01   8.4647391e+01   8.6520580e+01   8.8449565e+01   9.0490145e+01   9.2586522e+01   9.4738696e+01   9.6890870e+01   9.9170669e+01   1.0216517e+02   1.0592543e+02   1.1025625e+02   1.1453678e+02   1.1865965e+02   1.2263613e+02   1.2647748e+02   1.3024000e+02   1.3398000e+02   1.3717524e+02   1.3805524e+02   1.3662000e+02   1.3341429e+02   1.3011079e+02   1.2661175e+02   1.2281937e+02   1.1883143e+02   1.1474571e+02   1.1096005e+02   1.0837458e+02   1.0788945e+02   1.0915803e+02   1.1049376e+02   1.1079986e+02   1.1012294e+02   1.0924941e+02   1.0837588e+02   1.0750235e+02   1.0631058e+02   1.0384582e+02   1.0243313e+02   1.0277661e+02   1.0171425e+02   9.9700382e+01   9.6319184e+01   9.5657447e+01   9.5056066e+01   9.4675263e+01   9.4561923e+01   9.4621154e+01   9.4748077e+01   9.4847991e+01   9.4824976e+01   9.4653648e+01   9.4411783e+01   9.4169918e+01   9.3928053e+01   9.3686189e+01   9.3458385e+01   9.3067195e+01   9.2464516e+01   9.1645540e+01   9.0787714e+01   8.9939143e+01   8.9090571e+01   8.8263476e+01   8.7814833e+01   8.7744643e+01   8.8031429e+01   8.8318214e+01   8.8633155e+01   8.8943634e+01   8.9195291e+01   8.9431978e+01   8.9965201e+01   9.0810143e+01   9.1855621e+01   9.2783567e+01   9.3609652e+01   9.4373053e+01   9.5112947e+01   9.5853852e+01   9.6608898e+01   9.7380610e+01   9.8167979e+01   9.8957872e+01   9.8840720e+01   9.6072203e+01   9.0582547e+01   5.7977040e+01
0.0000000e+00   0.0000000e+00   0.0000000e+00   0.0000000e+00   0.0000000e+00   0.0000000e+00   0.0000000e+00   0.0000000e+00   0.0000000e+00   0.0000000e+00   0.0000000e+00   0.0000000e+00   0.0000000e+00   0.0000000e+00   0.0000000e+00   0.0000000e+00   0.0000000e+00   0.0000000e+00   0.0000000e+00   0.0000000e+00   0.0000000e+00   0.0000000e+00   0.0000000e+00   0.0000000e+00   0.0000000e+00   0.0000000e+00   0.0000000e+00   0.0000000e+00   0.0000000e+00   0.0000000e+00   0.0000000e+00   0.0000000e+00   0.0000000e+00   0.0000000e+00   0.0000000e+00   0.0000000e+00   0.0000000e+00   0.0000000e+00   3.1075000e+00   8.1345000e+00   1.2903000e+01   1.4151500e+01   1.3524500e+01   1.3852667e+01   1.6277556e+01   2.0228756e+01   2.4288279e+01   3.0872390e+01   3.9019790e+01   4.8580800e+01   5.6151600e+01   6.2807400e+01   6.9309033e+01   7.5322601e+01   7.9900378e+01   8.3176327e+01   8.5439133e+01   8.7636522e+01   8.9788696e+01   9.1940870e+01   9.4093043e+01   9.6245217e+01   9.8422916e+01   1.0118769e+02   1.0471823e+02   1.0898899e+02   1.1341591e+02   1.1776400e+02   1.2197695e+02   1.2604352e+02   1.2995243e+02   1.3376000e+02   1.3709143e+02   1.3810762e+02   1.3680857e+02   1.3350508e+02   1.3000603e+02   1.2621365e+02   1.2222571e+02   1.1814000e+02   1.1405429e+02   1.0996857e+02   1.0633293e+02   1.0404751e+02   1.0350442e+02   1.0366376e+02   1.0362539e+02   1.0299721e+02   1.0236902e+02   1.0174083e+02   1.0111265e+02   1.0048446e+02   9.9325864e+01   9.9356294e+01   1.0070437e+02   9.9657250e+01   9.7414914e+01   9.3818783e+01   9.3097125e+01   9.2504211e+01   9.2182227e+01   9.2171538e+01   9.2323846e+01   9.2552308e+01   9.2776677e+01   9.2846173e+01   9.2727573e+01   9.2475738e+01   9.2216066e+01   9.1956393e+01   9.1705158e+01   9.1487670e+01   9.1244120e+01   9.0880952e+01   9.0287738e+01   8.9524286e+01   8.8675714e+01   8.7827143e+01   8.6978571e+01   8.6536607e+01   8.6501250e+01   8.6872500e+01   8.7243750e+01   8.7587820e+01   8.7850349e+01   8.7976977e+01   8.8173562e+01   8.8715608e+01   8.9657476e+01   9.0789144e+01   9.1850292e+01   9.2801745e+01   9.3643500e+01   9.4414737e+01   9.5158167e+01   9.5917758e+01   9.6694016e+01   9.7483404e+01   9.8273298e+01   9.8784100e+01   9.7062174e+01   9.2619111e+01   5.9613840e+01
0.0000000e+00   0.0000000e+00   0.0000000e+00   0.0000000e+00   0.0000000e+00   0.0000000e+00   0.0000000e+00   0.0000000e+00   0.0000000e+00   0.0000000e+00   0.0000000e+00   0.0000000e+00   0.0000000e+00   0.0000000e+00   0.0000000e+00   0.0000000e+00   0.0000000e+00   0.0000000e+00   0.0000000e+00   0.0000000e+00   0.0000000e+00   0.0000000e+00   0.0000000e+00   0.0000000e+00   0.0000000e+00   0.0000000e+00   0.0000000e+00   0.0000000e+00   0.0000000e+00   0.0000000e+00   0.0000000e+00   0.0000000e+00   0.0000000e+00   0.0000000e+00   0.0000000e+00   0.0000000e+00   0.0000000e+00   0.0000000e+00   1.4025000e+00   4.0920000e+00   6.5065000e+00   7.2435000e+00   6.5706667e+00   6.2461667e+00   7.7048889e+00   1.0645556e+01   1.4136222e+01   1.9664333e+01   2.9425800e+01   4.0871133e+01   5.1078000e+01   5.7999600e+01   6.4921200e+01   7.1766103e+01   7.7263627e+01   8.1393568e+01   8.4131612e+01   8.6708036e+01   8.9062234e+01   9.1295217e+01   9.3447391e+01   9.5599565e+01   9.7751739e+01   1.0028679e+02   1.0358760e+02   1.0765416e+02   1.1210360e+02   1.1655303e+02   1.2094617e+02   1.2524921e+02   1.2939461e+02   1.3339361e+02   1.3697384e+02   1.3816000e+02   1.3689937e+02   1.3340032e+02   1.2960794e+02   1.2562000e+02   1.2156715e+02   1.1758004e+02   1.1365866e+02   1.0977014e+02   1.0588162e+02   1.0260681e+02   1.0035819e+02   9.9181289e+01   9.8559248e+01   9.8079559e+01   9.7696716e+01   9.7313873e+01   9.6931029e+01   9.6548186e+01   9.6165343e+01   9.6979864e+01   9.8926992e+01   9.8325659e+01   9.6195309e+01   9.2580728e+01   9.1162982e+01   9.0194928e+01   8.9765344e+01   8.9899615e+01   9.0145000e+01   9.0432692e+01   9.0721633e+01   9.0861665e+01   9.0813600e+01   9.0593115e+01   9.0333443e+01   9.0076583e+01   8.9847845e+01   8.9672541e+01   8.9553482e+01   8.9380238e+01   8.9042381e+01   8.8449167e+01   8.7685714e+01   8.6837143e+01   8.5988571e+01   8.5546607e+01   8.5511250e+01   8.5882500e+01   8.6232006e+01   8.6505407e+01   8.6648343e+01   8.6666250e+01   8.6866223e+01   8.7460580e+01   8.8465631e+01   8.9628641e+01   9.0768144e+01   9.1844964e+01   9.2819922e+01   9.3677349e+01   9.4463997e+01   9.5228133e+01   9.6008936e+01   9.6798830e+01   9.7588723e+01   9.8378617e+01   9.7703283e+01   9.4306810e+01   6.1250640e+01
0.0000000e+00   0.0000000e+00   0.0000000e+00   0.0000000e+00   0.0000000e+00   0.0000000e+00   0.0000000e+00   0.0000000e+00   0.0000000e+00   0.0000000e+00   0.0000000e+00   0.0000000e+00   0.0000000e+00   0.0000000e+00   0.0000000e+00   0.0000000e+00   0.0000000e+00   0.0000000e+00   0.0000000e+00   0.0000000e+00   0.0000000e+00   0.0000000e+00   0.0000000e+00   0.0000000e+00   0.0000000e+00   0.0000000e+00   0.0000000e+00   0.0000000e+00   0.0000000e+00   0.0000000e+00   0.0000000e+00   0.0000000e+00   0.0000000e+00   0.0000000e+00   0.0000000e+00   0.0000000e+00   0.0000000e+00   0.0000000e+00   0.0000000e+00   9.6250000e-01   1.7875000e+00   2.4750000e+00   2.0625000e+00   1.2375000e+00   1.8920000e+00   3.6740000e+00   6.0060000e+00   9.9806667e+00   2.1119267e+01   3.4653667e+01   4.7599200e+01   5.4786600e+01   6.1991671e+01   6.9025678e+01   7.4744919e+01   7.9111522e+01   8.2213208e+01   8.5153276e+01   8.7871117e+01   9.0407136e+01   9.2741132e+01   9.4953913e+01   9.7106087e+01   9.9436937e+01   1.0250802e+02   1.0634485e+02   1.1076876e+02   1.1521820e+02   1.1966764e+02   1.2410582e+02   1.2846517e+02   1.3270065e+02   1.3665355e+02   1.3810151e+02   1.3699180e+02   1.3339662e+02   1.2960588e+02   1.2571737e+02   1.2186172e+02   1.1807180e+02   1.1434762e+02   1.1065630e+02   1.0696499e+02   1.0331447e+02   1.0017063e+02   9.7775603e+01   9.6330687e+01   9.5563691e+01   9.5232500e+01   9.5095000e+01   9.4957500e+01   9.4820000e+01   9.4682500e+01   9.5622083e+01   9.7465766e+01   9.7740766e+01   9.6286563e+01   9.3142918e+01   9.0649392e+01   8.8761191e+01   8.7743397e+01   8.7791538e+01   8.8033846e+01   8.8338462e+01   8.8643077e+01   8.8853644e+01   8.8876116e+01   8.8710492e+01   8.8450820e+01   8.8210833e+01   8.8018655e+01   8.7885535e+01   8.7791786e+01   8.7709286e+01   8.7541667e+01   8.7203810e+01   8.6610595e+01   8.5847143e+01   8.4998571e+01   8.4556607e+01   8.4521250e+01   8.4876192e+01   8.5160465e+01   8.5319709e+01   8.5348488e+01   8.5301163e+01   8.5548011e+01   8.6205552e+01   8.7273786e+01   8.8436796e+01   8.9599806e+01   9.0747145e+01   9.1839635e+01   9.2838100e+01   9.3723319e+01   9.4539013e+01   9.5324362e+01   9.6114255e+01   9.6904149e+01   9.7694043e+01   9.7855981e+01   9.5506100e+01   6.2678122e+01
0.0000000e+00   0.0000000e+00   0.0000000e+00   0.0000000e+00   0.0000000e+00   0.0000000e+00   0.0000000e+00   0.0000000e+00   0.0000000e+00   0.0000000e+00   0.0000000e+00   0.0000000e+00   0.0000000e+00   0.0000000e+00   0.0000000e+00   0.0000000e+00   0.0000000e+00   0.0000000e+00   0.0000000e+00   0.0000000e+00   0.0000000e+00   0.0000000e+00   0.0000000e+00   0.0000000e+00   0.0000000e+00   0.0000000e+00   0.0000000e+00   0.0000000e+00   0.0000000e+00   0.0000000e+00   0.0000000e+00   0.0000000e+00   0.0000000e+00   0.0000000e+00   0.0000000e+00   0.0000000e+00   0.0000000e+00   0.0000000e+00   0.0000000e+00   0.0000000e+00   0.0000000e+00   0.0000000e+00   0.0000000e+00   0.0000000e+00   1.3713333e+00   3.5053333e+00   5.6393333e+00   6.0353333e+00   1.6566733e+01   2.9493933e+01   4.5183600e+01   5.2371000e+01   5.9617303e+01   6.6574614e+01   7.2217158e+01   7.6486034e+01   7.9729138e+01   8.2931837e+01   8.6013321e+01   8.8912984e+01   9.1610622e+01   9.4106237e+01   9.6420030e+01   9.8663659e+01   1.0150501e+02   1.0511212e+02   1.0943393e+02   1.1388337e+02   1.1833281e+02   1.2278225e+02   1.2713912e+02   1.3131211e+02   1.3522202e+02   1.3687645e+02   1.3626894e+02   1.3347868e+02   1.3032289e+02   1.2689933e+02   1.2324088e+02   1.1964816e+02   1.1612118e+02   1.1262706e+02   1.0913974e+02   1.0572722e+02   1.0241669e+02   9.9443470e+01   9.6981676e+01   9.5246224e+01   9.4285537e+01   9.3857500e+01   9.3720000e+01   9.3582500e+01   9.3445000e+01   9.4384583e+01   9.6076573e+01   9.7864073e+01   9.7437211e+01   9.4987444e+01   9.1038444e+01   8.7990402e+01   8.6252538e+01   8.6011923e+01   8.6101154e+01   8.6298077e+01   8.6548846e+01   8.6814275e+01   8.6907282e+01   8.6812194e+01   8.6579446e+01   8.6370394e+01   8.6220400e+01   8.6118214e+01   8.6035714e+01   8.5953214e+01   8.5870714e+01   8.5703095e+01   8.5365238e+01   8.4772024e+01   8.4008571e+01   8.3566607e+01   8.3520378e+01   8.3815523e+01   8.3991076e+01   8.4030727e+01   8.3988837e+01   8.3930298e+01   8.4240330e+01   8.4961054e+01   8.6081942e+01   8.7244951e+01   8.8407961e+01   8.9570971e+01   9.0720228e+01   9.1801763e+01   9.2778158e+01   9.3664681e+01   9.4515302e+01   9.5367438e+01   9.6198827e+01   9.7009468e+01   9.7659816e+01   9.6356527e+01   6.3756740e+01
0.0000000e+00   0.0000000e+00   0.0000000e+00   0.0000000e+00   0.0000000e+00   0.0000000e+00   0.0000000e+00   0.0000000e+00   0.0000000e+00   0.0000000e+00   0.0000000e+00   0.0000000e+00   0.0000000e+00   0.0000000e+00   0.0000000e+00   0.0000000e+00   0.0000000e+00   0.0000000e+00   0.0000000e+00   0.0000000e+00   0.0000000e+00   0.0000000e+00   0.0000000e+00   0.0000000e+00   0.0000000e+00   0.0000000e+00   0.0000000e+00   0.0000000e+00   0.0000000e+00   0.0000000e+00   0.0000000e+00   0.0000000e+00   0.0000000e+00   0.0000000e+00   0.0000000e+00   0.0000000e+00   0.0000000e+00   0.0000000e+00   0.0000000e+00   0.0000000e+00   0.0000000e+00   0.0000000e+00   0.0000000e+00   0.0000000e+00   1.4006667e+00   3.1680000e+00   4.9353333e+00   4.5906667e+00   1.4683533e+01   2.7172200e+01   4.2768000e+01   4.9967181e+01   5.7278277e+01   6.4158891e+01   6.9712959e+01   7.3840345e+01   7.7083448e+01   8.0326552e+01   8.3569655e+01   8.6752151e+01   8.9813433e+01   9.2672691e+01   9.5350127e+01   9.7805337e+01   1.0055838e+02   1.0395596e+02   1.0809910e+02   1.1250226e+02   1.1676657e+02   1.2089203e+02   1.2483237e+02   1.2863385e+02   1.3229650e+02   1.3407822e+02   1.3402529e+02   1.3213773e+02   1.2998241e+02   1.2755933e+02   1.2486849e+02   1.2190989e+02   1.1868353e+02   1.1518941e+02   1.1172249e+02   1.0835077e+02   1.0508104e+02   1.0188610e+02   9.8843234e+01   9.6187750e+01   9.4210184e+01   9.3055805e+01   9.2530923e+01   9.2345000e+01   9.2207500e+01   9.3295672e+01   9.4857258e+01   9.7497258e+01   9.7768197e+01   9.6028778e+01   9.1540778e+01   8.7630000e+01   8.5242000e+01   8.4563846e+01   8.4491538e+01   8.4526923e+01   8.4616154e+01   8.4805240e+01   8.4914937e+01   8.4896009e+01   8.4727758e+01   8.4560890e+01   8.4447455e+01   8.4362143e+01   8.4279643e+01   8.4197143e+01   8.4114643e+01   8.4032143e+01   8.3864524e+01   8.3526667e+01   8.2933452e+01   8.2571171e+01   8.2470581e+01   8.2662442e+01   8.2712965e+01   8.2676512e+01   8.2607442e+01   8.2580494e+01   8.2953710e+01   8.3737618e+01   8.4890097e+01   8.6053107e+01   8.7216117e+01   8.8367292e+01   8.9491841e+01   9.0574970e+01   9.1587056e+01   9.2542892e+01   9.3457271e+01   9.4371650e+01   9.5265282e+01   9.6138166e+01   9.6990302e+01   9.6795847e+01   6.4465746e+01
0.0000000e+00   0.0000000e+00   0.0000000e+00   0.0000000e+00   0.0000000e+00   0.0000000e+00   0.0000000e+00   0.0000000e+00   0.0000000e+00   0.0000000e+00   0.0000000e+00   0.0000000e+00   0.0000000e+00   0.0000000e+00   0.0000000e+00   0.0000000e+00   0.0000000e+00   0.0000000e+00   0.0000000e+00   0.0000000e+00   0.0000000e+00   0.0000000e+00   0.0000000e+00   0.0000000e+00   0.0000000e+00   0.0000000e+00   0.0000000e+00   0.0000000e+00   0.0000000e+00   0.0000000e+00   0.0000000e+00   0.0000000e+00   0.0000000e+00   0.0000000e+00   0.0000000e+00   0.0000000e+00   0.0000000e+00   0.0000000e+00   0.0000000e+00   0.0000000e+00   0.0000000e+00   0.0000000e+00   0.0000000e+00   0.0000000e+00   1.3542222e+00   2.4102222e+00   3.4662222e+00   2.6326667e+00   9.2150667e+00   2.1609867e+01   3.6935800e+01   4.7586923e+01   5.4968703e+01   6.1772620e+01   6.7214650e+01   7.1194655e+01   7.4437759e+01   7.7680862e+01   8.0923966e+01   8.4167069e+01   8.7410172e+01   9.0572466e+01   9.3613546e+01   9.6432399e+01   9.9319359e+01   1.0259080e+02   1.0634773e+02   1.1033435e+02   1.1418212e+02   1.1789104e+02   1.2141484e+02   1.2479979e+02   1.2804589e+02   1.2981768e+02   1.3016143e+02   1.2907714e+02   1.2772510e+02   1.2610529e+02   1.2421773e+02   1.2206241e+02   1.1963933e+02   1.1694849e+02   1.1405108e+02   1.1098792e+02   1.0775898e+02   1.0457085e+02   1.0138271e+02   9.8242999e+01   9.5442246e+01   9.3270989e+01   9.1922919e+01   9.1252768e+01   9.0970000e+01   9.2163293e+01   9.3594476e+01   9.6426976e+01   9.6779183e+01   9.5483667e+01   9.1116667e+01   8.7057000e+01   8.4393000e+01   8.3385000e+01   8.3205000e+01   8.3078846e+01   8.3006538e+01   8.3041923e+01   8.3060618e+01   8.3024220e+01   8.2904192e+01   8.2779508e+01   8.2688571e+01   8.2606071e+01   8.2523571e+01   8.2441071e+01   8.2358571e+01   8.2276071e+01   8.2193571e+01   8.2025952e+01   8.1688095e+01   8.1447128e+01   8.1333808e+01   8.1395203e+01   8.1364186e+01   8.1295116e+01   8.1226047e+01   8.1251752e+01   8.1688151e+01   8.2535243e+01   8.3698252e+01   8.4861262e+01   8.6006521e+01   8.7119235e+01   8.8184613e+01   8.9205613e+01   9.0197027e+01   9.1173649e+01   9.2150270e+01   9.3126892e+01   9.3687361e+01   9.4476068e+01   9.5348015e+01   9.6312989e+01   6.4481984e+01
0.0000000e+00   0.0000000e+00   0.0000000e+00   0.0000000e+00   0.0000000e+00   0.0000000e+00   0.0000000e+00   0.0000000e+00   0.0000000e+00   0.0000000e+00   0.0000000e+00   0.0000000e+00   0.0000000e+00   0.0000000e+00   0.0000000e+00   0.0000000e+00   0.0000000e+00   0.0000000e+00   0.0000000e+00   0.0000000e+00   0.0000000e+00   0.0000000e+00   0.0000000e+00   0.0000000e+00   0.0000000e+00   0.0000000e+00   0.0000000e+00   0.0000000e+00   0.0000000e+00   0.0000000e+00   0.0000000e+00   0.0000000e+00   0.0000000e+00   0.0000000e+00   0.0000000e+00   0.0000000e+00   0.0000000e+00   0.0000000e+00   0.0000000e+00   0.0000000e+00   0.0000000e+00   0.0000000e+00   0.0000000e+00   0.0000000e+00   8.8733333e-01   1.4080000e+00   1.9286667e+00   1.1513333e+00   4.3156667e+00   1.6440600e+01   3.1377890e+01   4.5236116e+01   5.2688581e+01   5.9409911e+01   6.4716340e+01   6.8548966e+01   7.1792069e+01   7.5035172e+01   7.8278276e+01   8.1521379e+01   8.4764483e+01   8.8007586e+01   9.1203845e+01   9.4252247e+01   9.7209165e+01   1.0029531e+02   1.0361170e+02   1.0709770e+02   1.1048690e+02   1.1377929e+02   1.1697911e+02   1.2017893e+02   1.2337875e+02   1.2515054e+02   1.2549429e+02   1.2441000e+02   1.2332571e+02   1.2224143e+02   1.2115714e+02   1.1978998e+02   1.1809456e+02   1.1607089e+02   1.1378849e+02   1.1130632e+02   1.0862440e+02   1.0595607e+02   1.0328774e+02   1.0053278e+02   9.7604552e+01   9.4793588e+01   9.2428639e+01   9.0838456e+01   8.9974614e+01   9.0987446e+01   9.2288226e+01   9.4653226e+01   9.4736613e+01   9.3624667e+01   9.0038667e+01   8.6223667e+01   8.3544000e+01   8.2260000e+01   8.2080000e+01   8.1901406e+01   8.1725625e+01   8.1606502e+01   8.1519120e+01   8.1439343e+01   8.1327387e+01   8.1206763e+01   8.1100201e+01   8.0997649e+01   8.0903118e+01   8.0816607e+01   8.0734107e+01   8.0651607e+01   8.0569107e+01   8.0486607e+01   8.0318988e+01   8.0197842e+01   8.0080426e+01   8.0052607e+01   7.9982791e+01   7.9913721e+01   7.9844651e+01   7.9933540e+01   8.0433123e+01   8.1343398e+01   8.2503449e+01   8.3642791e+01   8.4743671e+01   8.5794256e+01   8.6803422e+01   8.7788919e+01   8.8765541e+01   8.9277351e+01   8.9874649e+01   9.0557432e+01   9.1449608e+01   9.2754270e+01   9.4253919e+01   9.6101959e+01   6.4611486e+01
0.0000000e+00   0.0000000e+00   0.0000000e+00   0.0000000e+00   0.0000000e+00   0.0000000e+00   0.0000000e+00   0.0000000e+00   0.0000000e+00   0.0000000e+00   0.0000000e+00   0.0000000e+00   0.0000000e+00   0.0000000e+00   0.0000000e+00   0.0000000e+00   0.0000000e+00   0.0000000e+00   0.0000000e+00   0.0000000e+00   0.0000000e+00   0.0000000e+00   0.0000000e+00   0.0000000e+00   0.0000000e+00   0.0000000e+00   0.0000000e+00   0.0000000e+00   0.0000000e+00   0.0000000e+00   0.0000000e+00   0.0000000e+00   0.0000000e+00   0.0000000e+00   0.0000000e+00   0.0000000e+00   0.0000000e+00   0.0000000e+00   0.0000000e+00   0.0000000e+00   0.0000000e+00   0.0000000e+00   0.0000000e+00   0.0000000e+00   5.2066667e-01   6.3066667e-01   7.4066667e-01   3.3000000e-01   2.2000000e-01   1.1950400e+01   2.6111942e+01   4.2920652e+01   5.0443800e+01   5.7058982e+01   6.2218031e+01   6.5903276e+01   6.9146379e+01   7.2389483e+01   7.5632586e+01   7.8828845e+01   8.1978259e+01   8.5080828e+01   8.8136552e+01   9.1145431e+01   9.4107466e+01   9.7064691e+01   1.0001711e+02   1.0300675e+02   1.0603843e+02   1.0915418e+02   1.1231196e+02   1.1551179e+02   1.1871161e+02   1.2048339e+02   1.2082714e+02   1.1974286e+02   1.1865857e+02   1.1754404e+02   1.1636902e+02   1.1511838e+02   1.1377700e+02   1.1237514e+02   1.1069414e+02   1.0877938e+02   1.0663087e+02   1.0448235e+02   1.0233383e+02   1.0009868e+02   9.7690254e+01   9.5108562e+01   9.2633926e+01   9.0595096e+01   8.9234184e+01   8.9785233e+01   9.0789919e+01   9.2687419e+01   9.2433710e+01   9.1245000e+01   8.8179667e+01   8.4869667e+01   8.2437479e+01   8.1143438e+01   8.0971875e+01   8.0801719e+01   8.0634375e+01   8.0469844e+01   8.0306719e+01   8.0154427e+01   8.0012969e+01   7.9882344e+01   7.9751719e+01   7.9625104e+01   7.9506510e+01   7.9395938e+01   7.9289375e+01   7.9182812e+01   7.9084271e+01   7.8993750e+01   7.8911250e+01   7.8830242e+01   7.8751473e+01   7.8675688e+01   7.8602888e+01   7.8532326e+01   7.8463256e+01   7.8615329e+01   7.9178094e+01   8.0142678e+01   8.1273144e+01   8.2362190e+01   8.3400941e+01   8.4217528e+01   8.5098892e+01   8.6062784e+01   8.7295865e+01   8.8064135e+01   8.8917892e+01   8.9857135e+01   9.1005770e+01   9.2566892e+01   9.4323000e+01   9.5531878e+01   6.4018378e+01
0.0000000e+00   0.0000000e+00   0.0000000e+00   0.0000000e+00   0.0000000e+00   0.0000000e+00   0.0000000e+00   0.0000000e+00   0.0000000e+00   0.0000000e+00   0.0000000e+00   0.0000000e+00   0.0000000e+00   0.0000000e+00   0.0000000e+00   0.0000000e+00   0.0000000e+00   0.0000000e+00   0.0000000e+00   0.0000000e+00   0.0000000e+00   0.0000000e+00   0.0000000e+00   0.0000000e+00   0.0000000e+00   0.0000000e+00   0.0000000e+00   0.0000000e+00   0.0000000e+00   0.0000000e+00   0.0000000e+00   0.0000000e+00   0.0000000e+00   0.0000000e+00   0.0000000e+00   0.0000000e+00   0.0000000e+00   0.0000000e+00   0.0000000e+00   0.0000000e+00   0.0000000e+00   0.0000000e+00   0.0000000e+00   0.0000000e+00   1.1000000e-01   2.2000000e-01   3.3000000e-01   2.2000000e-01   1.1000000e-01   1.1035200e+01   2.4554555e+01   4.0628748e+01   4.8222581e+01   5.4708053e+01   5.9719722e+01   6.3257586e+01   6.6453845e+01   6.9603259e+01   7.2705828e+01   7.5761552e+01   7.8770431e+01   8.1732466e+01   8.4647655e+01   8.7516000e+01   9.0337500e+01   9.3159000e+01   9.5980500e+01   9.8844036e+01   1.0174961e+02   1.0473925e+02   1.0777093e+02   1.1088668e+02   1.1404446e+02   1.1581625e+02   1.1616000e+02   1.1503035e+02   1.1384020e+02   1.1255932e+02   1.1120282e+02   1.0977071e+02   1.0824786e+02   1.0666452e+02   1.0503581e+02   1.0358806e+02   1.0297597e+02   1.0236387e+02   1.0157081e+02   9.9855462e+01   9.7966848e+01   9.5904964e+01   9.3756446e+01   9.1704773e+01   8.9992060e+01   8.9581891e+01   8.9791048e+01   9.0721613e+01   9.0130806e+01   8.8605000e+01   8.6066149e+01   8.3625115e+01   8.2036376e+01   8.1033782e+01   8.0785668e+01   8.0538960e+01   8.0295065e+01   8.0053982e+01   7.9814305e+01   7.9574628e+01   7.9334952e+01   7.9095275e+01   7.8855598e+01   7.8619932e+01   7.8406451e+01   7.8229321e+01   7.8084531e+01   7.7953906e+01   7.7831302e+01   7.7716719e+01   7.7610156e+01   7.7503594e+01   7.7401788e+01   7.7309495e+01   7.7228207e+01   7.7153915e+01   7.7082607e+01   7.7297117e+01   7.7908273e+01   7.8900538e+01   7.9866278e+01   8.0835222e+01   8.1771622e+01   8.2615081e+01   8.3493486e+01   8.4507919e+01   8.5791541e+01   8.6610351e+01   8.7464108e+01   8.8403351e+01   8.9997932e+01   9.1756014e+01   9.3605095e+01   9.4414514e+01   6.3188649e+01
0.0000000e+00   0.0000000e+00   0.0000000e+00   0.0000000e+00   0.0000000e+00   0.0000000e+00   0.0000000e+00   0.0000000e+00   0.0000000e+00   0.0000000e+00   0.0000000e+00   0.0000000e+00   0.0000000e+00   0.0000000e+00   0.0000000e+00   0.0000000e+00   0.0000000e+00   0.0000000e+00   0.0000000e+00   0.0000000e+00   0.0000000e+00   0.0000000e+00   0.0000000e+00   0.0000000e+00   0.0000000e+00   0.0000000e+00   0.0000000e+00   0.0000000e+00   0.0000000e+00   0.0000000e+00   0.0000000e+00   0.0000000e+00   0.0000000e+00   0.0000000e+00   0.0000000e+00   0.0000000e+00   0.0000000e+00   0.0000000e+00   0.0000000e+00   0.0000000e+00   0.0000000e+00   0.0000000e+00   0.0000000e+00   0.0000000e+00   1.1000000e-01   1.1000000e-01   1.1000000e-01   0.0000000e+00   0.0000000e+00   1.0498400e+01   2.3528077e+01   3.9112594e+01   4.6508710e+01   5.2555118e+01   5.7080878e+01   6.0330828e+01   6.3386552e+01   6.6395431e+01   6.9357466e+01   7.2272655e+01   7.5141000e+01   7.7962500e+01   8.0784000e+01   8.3605500e+01   8.6427000e+01   8.9248500e+01   9.2070000e+01   9.4891500e+01   9.7713000e+01   1.0057654e+02   1.0348211e+02   1.0647175e+02   1.0950343e+02   1.1170971e+02   1.1253000e+02   1.1187355e+02   1.1057754e+02   1.0913031e+02   1.0759233e+02   1.0599387e+02   1.0436516e+02   1.0273645e+02   1.0110774e+02   1.0049565e+02   1.0071919e+02   1.0094274e+02   1.0014968e+02   9.8520968e+01   9.6892258e+01   9.5263548e+01   9.3634839e+01   9.2006129e+01   9.0377419e+01   8.9291613e+01   8.8748710e+01   8.8755806e+01   8.8094053e+01   8.6763448e+01   8.5023046e+01   8.3548793e+01   8.2635169e+01   8.2016024e+01   8.1691358e+01   8.1366692e+01   8.1042026e+01   8.0717360e+01   8.0392694e+01   8.0068028e+01   7.9743362e+01   7.9418696e+01   7.9094030e+01   7.8769364e+01   7.8458863e+01   7.8176692e+01   7.7922850e+01   7.7683173e+01   7.7451518e+01   7.7227883e+01   7.7012268e+01   7.6796654e+01   7.6585050e+01   7.6381467e+01   7.6187397e+01   7.5999576e+01   7.5814740e+01   7.6149175e+01   7.6903307e+01   7.8055680e+01   7.9018706e+01   7.9999730e+01   8.0968919e+01   8.1812378e+01   8.2741324e+01   8.3806297e+01   8.5140459e+01   8.6424081e+01   8.7657162e+01   8.8940784e+01   9.0274946e+01   9.1609108e+01   9.2892730e+01   9.3280730e+01   6.2316486e+01
0.0000000e+00   0.0000000e+00   0.0000000e+00   0.0000000e+00   0.0000000e+00   0.0000000e+00   0.0000000e+00   0.0000000e+00   0.0000000e+00   0.0000000e+00   0.0000000e+00   0.0000000e+00   0.0000000e+00   0.0000000e+00   0.0000000e+00   0.0000000e+00   0.0000000e+00   0.0000000e+00   0.0000000e+00   0.0000000e+00   0.0000000e+00   0.0000000e+00   0.0000000e+00   0.0000000e+00   0.0000000e+00   0.0000000e+00   0.0000000e+00   0.0000000e+00   0.0000000e+00   0.0000000e+00   0.0000000e+00   0.0000000e+00   0.0000000e+00   0.0000000e+00   0.0000000e+00   0.0000000e+00   0.0000000e+00   0.0000000e+00   0.0000000e+00   0.0000000e+00   0.0000000e+00   0.0000000e+00   0.0000000e+00   1.1000000e-01   1.1000000e-01   1.1000000e-01   0.0000000e+00   0.0000000e+00   0.0000000e+00   1.0230000e+01   2.3014839e+01   3.8354516e+01   4.5774194e+01   5.1771476e+01   5.6248108e+01   5.9448931e+01   6.2457810e+01   6.5373000e+01   6.8194500e+01   7.1016000e+01   7.3837500e+01   7.6659000e+01   7.9480500e+01   8.2302000e+01   8.5123500e+01   8.7945000e+01   9.0766500e+01   9.3588000e+01   9.6409500e+01   9.9231000e+01   1.0205250e+02   1.0495807e+02   1.0720914e+02   1.0941543e+02   1.1023571e+02   1.1027247e+02   1.0887060e+02   1.0728726e+02   1.0565855e+02   1.0402984e+02   1.0240113e+02   1.0077242e+02   9.9143710e+01   9.9367258e+01   1.0042645e+02   1.0148565e+02   1.0069258e+02   9.9063871e+01   9.7435161e+01   9.5806452e+01   9.4177742e+01   9.2549032e+01   9.0920323e+01   8.9291613e+01   8.8205806e+01   8.7738602e+01   8.7145451e+01   8.5883448e+01   8.4409195e+01   8.3467241e+01   8.3057586e+01   8.2647931e+01   8.2238276e+01   8.1828621e+01   8.1418966e+01   8.1009310e+01   8.0599655e+01   8.0190000e+01   7.9780345e+01   7.9370690e+01   7.8961034e+01   7.8551379e+01   7.8170054e+01   7.7845388e+01   7.7577381e+01   7.7337705e+01   7.7098028e+01   7.6858351e+01   7.6618675e+01   7.6378998e+01   7.6147342e+01   7.5931728e+01   7.5732155e+01   7.5542096e+01   7.5201532e+01   7.5556283e+01   7.6316683e+01   7.7616978e+01   7.8603919e+01   7.9623649e+01   8.0643378e+01   8.1670541e+01   8.2748243e+01   8.3876486e+01   8.5004730e+01   8.6031892e+01   8.7008514e+01   8.8086216e+01   8.9214459e+01   9.0342703e+01   9.1369865e+01   9.2447568e+01   6.1990946e+01
0.0000000e+00   0.0000000e+00   0.0000000e+00   0.0000000e+00   0.0000000e+00   0.0000000e+00   0.0000000e+00   0.0000000e+00   0.0000000e+00   0.0000000e+00   0.0000000e+00   0.0000000e+00   0.0000000e+00   0.0000000e+00   0.0000000e+00   0.0000000e+00   0.0000000e+00   0.0000000e+00   0.0000000e+00   0.0000000e+00   0.0000000e+00   0.0000000e+00   0.0000000e+00   0.0000000e+00   0.0000000e+00   0.0000000e+00   0.0000000e+00   0.0000000e+00   0.0000000e+00   0.0000000e+00   0.0000000e+00   0.0000000e+00   0.0000000e+00   0.0000000e+00   0.0000000e+00   0.0000000e+00   0.0000000e+00   0.0000000e+00   0.0000000e+00   0.0000000e+00   0.0000000e+00   0.0000000e+00   0.0000000e+00   1.1000000e-01   1.1000000e-01   1.1000000e-01   0.0000000e+00   0.0000000e+00   0.0000000e+00   1.0498400e+01   2.3528077e+01   3.9112594e+01   4.6508710e+01   5.2555118e+01   5.7080878e+01   6.0330828e+01   6.3386552e+01   6.6395431e+01   6.9357466e+01   7.2272655e+01   7.4954000e+01   7.7552037e+01   8.0113611e+01   8.2825722e+01   8.5537833e+01   8.8249944e+01   9.0962056e+01   9.3674167e+01   9.6386278e+01   9.9098389e+01   1.0156402e+02   1.0382520e+02   1.0514337e+02   1.0743434e+02   1.0939893e+02   1.1097711e+02   1.1046929e+02   1.0913262e+02   1.0776570e+02   1.0639878e+02   1.0503186e+02   1.0366495e+02   1.0229803e+02   1.0260240e+02   1.0224822e+02   1.0180677e+02   9.9606774e+01   9.7978065e+01   9.6349355e+01   9.4720645e+01   9.3091935e+01   9.1463226e+01   8.9834516e+01   8.8524274e+01   8.7756935e+01   8.7945000e+01   8.7688649e+01   8.6763448e+01   8.5023046e+01   8.3548793e+01   8.2635169e+01   8.2016024e+01   8.1691358e+01   8.1366692e+01   8.1042026e+01   8.0717360e+01   8.0392694e+01   8.0068028e+01   7.9743362e+01   7.9418696e+01   7.8238093e+01   7.7203010e+01   7.6327613e+01   7.6482004e+01   7.6523341e+01   7.6437458e+01   7.6210192e+01   7.5982925e+01   7.5755658e+01   7.5528391e+01   7.5305135e+01   7.5089900e+01   7.4882685e+01   7.4666688e+01   7.4217459e+01   7.4452970e+01   7.5091574e+01   7.6417097e+01   7.7637723e+01   7.8946811e+01   8.0280973e+01   8.1514054e+01   8.2848216e+01   8.4182378e+01   8.5516541e+01   8.6749622e+01   8.7982703e+01   8.9316865e+01   9.0651027e+01   9.1985189e+01   9.3218270e+01   9.4032892e+01   6.2960135e+01
0.0000000e+00   0.0000000e+00   0.0000000e+00   0.0000000e+00   0.0000000e+00   0.0000000e+00   0.0000000e+00   0.0000000e+00   0.0000000e+00   0.0000000e+00   0.0000000e+00   0.0000000e+00   0.0000000e+00   0.0000000e+00   0.0000000e+00   0.0000000e+00   0.0000000e+00   0.0000000e+00   0.0000000e+00   0.0000000e+00   0.0000000e+00   0.0000000e+00   0.0000000e+00   0.0000000e+00   0.0000000e+00   0.0000000e+00   0.0000000e+00   0.0000000e+00   0.0000000e+00   0.0000000e+00   0.0000000e+00   0.0000000e+00   0.0000000e+00   0.0000000e+00   0.0000000e+00   0.0000000e+00   0.0000000e+00   0.0000000e+00   0.0000000e+00   0.0000000e+00   0.0000000e+00   0.0000000e+00   0.0000000e+00   1.1000000e-01   1.1000000e-01   1.1000000e-01   0.0000000e+00   0.0000000e+00   0.0000000e+00   1.1035200e+01   2.4554555e+01   4.0628748e+01   4.8222581e+01   5.4708053e+01   5.9719722e+01   6.3257586e+01   6.6453845e+01   6.9312138e+01   7.0461575e+01   7.1157989e+01   7.2761333e+01   7.6793037e+01   8.1577630e+01   8.5579796e+01   8.8649000e+01   9.1251722e+01   9.3854444e+01   9.6210685e+01   9.8320444e+01   1.0018372e+02   1.0180052e+02   1.0321287e+02   1.0368220e+02   1.0562335e+02   1.0825571e+02   1.1156462e+02   1.1336659e+02   1.1369233e+02   1.1329507e+02   1.1218995e+02   1.1108482e+02   1.0973321e+02   1.0788864e+02   1.0638676e+02   1.0435567e+02   1.0284793e+02   1.0082298e+02   9.9312559e+01   9.7423945e+01   9.5362061e+01   9.3213543e+01   9.1161870e+01   8.9449157e+01   8.8546649e+01   8.8263468e+01   8.9375000e+01   8.6799167e+01   8.3653514e+01   7.9186690e+01   7.8009529e+01   7.7392997e+01   7.7070944e+01   7.7043371e+01   7.7015797e+01   7.6988223e+01   7.6960650e+01   7.6933076e+01   7.6905502e+01   7.6877929e+01   7.6816229e+01   7.5847402e+01   7.4972906e+01   7.4241032e+01   7.4521227e+01   7.4646308e+01   7.4628795e+01   7.4472243e+01   7.4342376e+01   7.4212508e+01   7.4082640e+01   7.3956783e+01   7.3838947e+01   7.3702053e+01   7.3475142e+01   7.2933765e+01   7.2903792e+01   7.3304954e+01   7.4426993e+01   7.5546732e+01   7.6810998e+01   7.8200635e+01   7.9640027e+01   8.1180108e+01   8.2720189e+01   8.4260270e+01   8.5749811e+01   8.7239351e+01   8.8779432e+01   9.0374014e+01   9.2132095e+01   9.3930635e+01   9.4949649e+01   6.3615270e+01
0.0000000e+00   0.0000000e+00   0.0000000e+00   0.0000000e+00   0.0000000e+00   0.0000000e+00   0.0000000e+00   0.0000000e+00   0.0000000e+00   0.0000000e+00   0.0000000e+00   0.0000000e+00   0.0000000e+00   0.0000000e+00   0.0000000e+00   0.0000000e+00   0.0000000e+00   0.0000000e+00   0.0000000e+00   0.0000000e+00   0.0000000e+00   0.0000000e+00   0.0000000e+00   0.0000000e+00   0.0000000e+00   0.0000000e+00   0.0000000e+00   0.0000000e+00   0.0000000e+00   0.0000000e+00   0.0000000e+00   0.0000000e+00   0.0000000e+00   0.0000000e+00   0.0000000e+00   0.0000000e+00   0.0000000e+00   0.0000000e+00   0.0000000e+00   0.0000000e+00   0.0000000e+00   0.0000000e+00   0.0000000e+00   0.0000000e+00   4.1066667e-01   4.1066667e-01   4.1066667e-01   0.0000000e+00   5.5000000e-01   1.2390400e+01   2.6661942e+01   4.2920652e+01   5.0443800e+01   5.7058982e+01   6.1916479e+01   6.3638161e+01   6.3255690e+01   6.1221638e+01   6.0037241e+01   6.0911489e+01   6.5204333e+01   7.1925537e+01   7.9399630e+01   8.6091296e+01   9.0670556e+01   9.3603889e+01   9.5357778e+01   9.6865185e+01   9.8126111e+01   9.9140556e+01   9.9908519e+01   1.0043000e+02   1.0070500e+02   1.0273083e+02   1.0650750e+02   1.1132713e+02   1.1543889e+02   1.1813491e+02   1.2012306e+02   1.2020250e+02   1.1908111e+02   1.1651241e+02   1.1345074e+02   1.0989611e+02   1.0618811e+02   1.0337930e+02   1.0140940e+02   9.9810626e+01   9.7690254e+01   9.5108562e+01   9.2633926e+01   9.0595096e+01   8.9234184e+01   8.8981523e+01   8.9182500e+01   9.1080000e+01   8.6254348e+01   8.1160977e+01   7.4346428e+01   7.3637891e+01   7.3286912e+01   7.3261951e+01   7.3531470e+01   7.3800988e+01   7.4053444e+01   7.4254709e+01   7.4404786e+01   7.4520736e+01   7.4636685e+01   7.4718509e+01   7.3893205e+01   7.3162233e+01   7.2559718e+01   7.2905502e+01   7.3019112e+01   7.2940575e+01   7.2743064e+01   7.2605593e+01   7.2488136e+01   7.2370678e+01   7.2253220e+01   7.2095145e+01   7.1828757e+01   7.1386360e+01   7.0740876e+01   7.0523968e+01   7.0803333e+01   7.1721889e+01   7.2740741e+01   7.3910037e+01   7.5204704e+01   7.6624741e+01   7.8195222e+01   7.9866000e+01   8.1612000e+01   8.3358000e+01   8.5213000e+01   8.7231500e+01   8.9468000e+01   9.1922500e+01   9.4323000e+01   9.5737419e+01   6.4223919e+01
0.0000000e+00   0.0000000e+00   0.0000000e+00   0.0000000e+00   0.0000000e+00   0.0000000e+00   0.0000000e+00   0.0000000e+00   0.0000000e+00   0.0000000e+00   0.0000000e+00   0.0000000e+00   0.0000000e+00   0.0000000e+00   0.0000000e+00   0.0000000e+00   0.0000000e+00   0.0000000e+00   0.0000000e+00   0.0000000e+00   0.0000000e+00   0.0000000e+00   0.0000000e+00   0.0000000e+00   0.0000000e+00   0.0000000e+00   0.0000000e+00   0.0000000e+00   0.0000000e+00   0.0000000e+00   0.0000000e+00   0.0000000e+00   0.0000000e+00   0.0000000e+00   0.0000000e+00   0.0000000e+00   0.0000000e+00   0.0000000e+00   0.0000000e+00   0.0000000e+00   0.0000000e+00   0.0000000e+00   0.0000000e+00   0.0000000e+00   8.8733333e-01   8.8733333e-01   8.8733333e-01   5.5000000e-01   4.7850000e+00   1.7430600e+01   3.1927890e+01   4.5661035e+01   5.1385140e+01   5.4653798e+01   5.4935179e+01   5.3837560e+01   5.1816256e+01   4.8877178e+01   4.7420212e+01   4.9314853e+01   5.5823690e+01   6.5457857e+01   7.5881376e+01   8.5371931e+01   9.1557540e+01   9.4904683e+01   9.5879841e+01   9.6621614e+01   9.7130000e+01   9.7405000e+01   9.7680000e+01   9.7955000e+01   9.8230000e+01   1.0025583e+02   1.0403250e+02   1.0956000e+02   1.1508750e+02   1.1987148e+02   1.2374617e+02   1.2484765e+02   1.2366718e+02   1.2003999e+02   1.1558352e+02   1.1055000e+02   1.0639750e+02   1.0360728e+02   1.0211908e+02   1.0043071e+02   9.7871939e+01   9.4998983e+01   9.2428639e+01   9.0838456e+01   8.9974614e+01   9.0053333e+01   9.0420000e+01   9.2785000e+01   8.5650543e+01   7.8550470e+01   6.9563819e+01   6.9761586e+01   7.0034322e+01   7.0350485e+01   7.0678538e+01   7.1006591e+01   7.1317581e+01   7.1577381e+01   7.1785992e+01   7.1960476e+01   7.2134960e+01   7.2275318e+01   7.2364486e+01   7.2402465e+01   7.2418950e+01   7.2333545e+01   7.2108621e+01   7.1788633e+01   7.1511070e+01   7.1326901e+01   7.1196102e+01   7.1078644e+01   7.0907030e+01   7.0613563e+01   7.0130549e+01   6.9457986e+01   6.8663571e+01   6.8378968e+01   6.8658333e+01   6.9501667e+01   7.0345000e+01   7.1238481e+01   7.2232259e+01   7.3351407e+01   7.4621000e+01   7.5990889e+01   7.7699796e+01   7.9672500e+01   8.2018000e+01   8.4527000e+01   8.7254000e+01   9.0147143e+01   9.2820643e+01   9.5135102e+01   6.4084459e+01
0.0000000e+00   0.0000000e+00   0.0000000e+00   0.0000000e+00   0.0000000e+00   0.0000000e+00   0.0000000e+00   0.0000000e+00   0.0000000e+00   0.0000000e+00   0.0000000e+00   0.0000000e+00   0.0000000e+00   0.0000000e+00   0.0000000e+00   0.0000000e+00   0.0000000e+00   0.0000000e+00   0.0000000e+00   0.0000000e+00   0.0000000e+00   0.0000000e+00   0.0000000e+00   0.0000000e+00   0.0000000e+00   0.0000000e+00   0.0000000e+00   0.0000000e+00   0.0000000e+00   0.0000000e+00   0.0000000e+00   0.0000000e+00   0.0000000e+00   0.0000000e+00   0.0000000e+00   0.0000000e+00   0.0000000e+00   0.0000000e+00   0.0000000e+00   0.0000000e+00   0.0000000e+00   0.0000000e+00   0.0000000e+00   0.0000000e+00   1.3542222e+00   1.9995556e+00   2.5495556e+00   3.2120000e+00   1.2521667e+01   2.5455467e+01   3.7584800e+01   4.3808923e+01   4.6018072e+01   4.6967421e+01   4.5420761e+01   4.2986369e+01   3.9775672e+01   3.6507055e+01   3.6956117e+01   4.1854322e+01   5.0903333e+01   6.1238571e+01   7.2128571e+01   8.3018571e+01   9.0344048e+01   9.4105000e+01   9.4301429e+01   9.4510952e+01   9.4733571e+01   9.4969286e+01   9.5218095e+01   9.5480000e+01   9.5755000e+01   9.7780833e+01   1.0155750e+02   1.0704935e+02   1.1250556e+02   1.1789046e+02   1.2274240e+02   1.2470014e+02   1.2354707e+02   1.1952828e+02   1.1483684e+02   1.0972500e+02   1.0557250e+02   1.0254750e+02   1.0079465e+02   9.8898390e+01   9.6509929e+01   9.4008051e+01   9.2090975e+01   9.1252768e+01   9.0970000e+01   9.1497083e+01   9.2070000e+01   9.4902500e+01   8.7852337e+01   8.0773478e+01   7.1483713e+01   7.1343452e+01   7.1141190e+01   7.0958393e+01   7.0948167e+01   7.1086799e+01   7.1244220e+01   7.1350451e+01   7.1405493e+01   7.1426408e+01   7.1447324e+01   7.1468239e+01   7.1489155e+01   7.1510070e+01   7.1504406e+01   7.1365841e+01   7.1081085e+01   7.0690061e+01   7.0339115e+01   7.0081565e+01   6.9910739e+01   6.9718914e+01   6.9398370e+01   6.8874738e+01   6.8175097e+01   6.7367143e+01   6.6518571e+01   6.6233968e+01   6.6513333e+01   6.7356667e+01   6.8200000e+01   6.9043194e+01   6.9886109e+01   7.0753818e+01   7.1721685e+01   7.2919437e+01   7.4747783e+01   7.7104000e+01   7.9967500e+01   8.2967000e+01   8.6130000e+01   8.9166000e+01   9.1731000e+01   9.4237186e+01   6.3563686e+01
0.0000000e+00   0.0000000e+00   0.0000000e+00   0.0000000e+00   0.0000000e+00   0.0000000e+00   0.0000000e+00   0.0000000e+00   0.0000000e+00   0.0000000e+00   0.0000000e+00   0.0000000e+00   0.0000000e+00   0.0000000e+00   0.0000000e+00   0.0000000e+00   0.0000000e+00   0.0000000e+00   0.0000000e+00   0.0000000e+00   0.0000000e+00   0.0000000e+00   0.0000000e+00   0.0000000e+00   0.0000000e+00   0.0000000e+00   0.0000000e+00   0.0000000e+00   0.0000000e+00   0.0000000e+00   0.0000000e+00   0.0000000e+00   0.0000000e+00   0.0000000e+00   0.0000000e+00   0.0000000e+00   0.0000000e+00   0.0000000e+00   0.0000000e+00   0.0000000e+00   0.0000000e+00   0.0000000e+00   0.0000000e+00   0.0000000e+00   1.4006667e+00   2.7573333e+00   4.7740000e+00   7.4800000e+00   2.0340833e+01   3.1470267e+01   4.0269646e+01   4.0290989e+01   4.0009827e+01   3.8778147e+01   3.5655871e+01   3.3799142e+01   3.3252120e+01   3.4633245e+01   3.7845989e+01   4.3238168e+01   5.0446190e+01   5.9560952e+01   7.0007143e+01   8.0897143e+01   8.8209524e+01   9.1944286e+01   9.2101429e+01   9.2271667e+01   9.2455000e+01   9.2651429e+01   9.2860952e+01   9.3083571e+01   9.3319286e+01   9.5283280e+01   9.8975556e+01   1.0436046e+02   1.0970972e+02   1.1498769e+02   1.1923536e+02   1.2096080e+02   1.1994741e+02   1.1693759e+02   1.1317103e+02   1.0864776e+02   1.0474750e+02   1.0172250e+02   9.9825000e+01   9.7927500e+01   9.5681201e+01   9.3609534e+01   9.1928978e+01   9.1636111e+01   9.1755278e+01   9.2940833e+01   9.3720000e+01   9.6360000e+01   8.9394130e+01   8.2399565e+01   7.3449710e+01   7.2917246e+01   7.2117288e+01   7.1285327e+01   7.0752111e+01   7.0522058e+01   7.0471268e+01   7.0492183e+01   7.0513099e+01   7.0534014e+01   7.0554930e+01   7.0575845e+01   7.0596761e+01   7.0617676e+01   7.0572141e+01   7.0380416e+01   7.0042500e+01   6.9624844e+01   6.9227201e+01   6.8889597e+01   6.8570826e+01   6.8183176e+01   6.7618927e+01   6.6892207e+01   6.6070714e+01   6.5222143e+01   6.4373571e+01   6.4088689e+01   6.4367496e+01   6.5209992e+01   6.6052489e+01   6.6894845e+01   6.7736923e+01   6.8578721e+01   6.9420381e+01   7.0650807e+01   7.2728180e+01   7.5625000e+01   7.8925000e+01   8.2170000e+01   8.5361571e+01   8.8190143e+01   9.0537643e+01   9.2880171e+01   6.2661600e+01
0.0000000e+00   0.0000000e+00   0.0000000e+00   0.0000000e+00   0.0000000e+00   0.0000000e+00   0.0000000e+00   0.0000000e+00   0.0000000e+00   0.0000000e+00   0.0000000e+00   0.0000000e+00   0.0000000e+00   0.0000000e+00   0.0000000e+00   0.0000000e+00   0.0000000e+00   0.0000000e+00   0.0000000e+00   0.0000000e+00   0.0000000e+00   0.0000000e+00   0.0000000e+00   0.0000000e+00   0.0000000e+00   0.0000000e+00   0.0000000e+00   0.0000000e+00   0.0000000e+00   0.0000000e+00   0.0000000e+00   0.0000000e+00   0.0000000e+00   0.0000000e+00   0.0000000e+00   0.0000000e+00   0.0000000e+00   0.0000000e+00   0.0000000e+00   0.0000000e+00   0.0000000e+00   0.0000000e+00   0.0000000e+00   0.0000000e+00   1.3713333e+00   3.5053333e+00   6.4020000e+00   1.1300667e+01   2.3604167e+01   3.2340000e+01   3.7391538e+01   3.4676427e+01   3.4657956e+01   3.4842090e+01   3.4517015e+01   3.4191940e+01   3.4606219e+01   3.6840444e+01   4.0899437e+01   4.5901392e+01   5.1601282e+01   5.8881905e+01   6.8218571e+01   7.8775714e+01   8.6088095e+01   8.9822857e+01   8.9980000e+01   9.0137143e+01   9.0294286e+01   9.0451429e+01   9.0635139e+01   9.0885837e+01   9.1227391e+01   9.3005492e+01   9.6435430e+01   1.0145769e+02   1.0670000e+02   1.1190667e+02   1.1562138e+02   1.1684950e+02   1.1559103e+02   1.1316977e+02   1.1032810e+02   1.0681379e+02   1.0358618e+02   1.0089750e+02   9.9000000e+01   9.7102500e+01   9.5205000e+01   9.3335000e+01   9.1660556e+01   9.0829444e+01   9.1434444e+01   9.3507639e+01   9.5370000e+01   9.7157500e+01   9.0275924e+01   8.3291256e+01   7.5224058e+01   7.4245217e+01   7.2913527e+01   7.1592413e+01   7.0612624e+01   6.9988190e+01   6.9686431e+01   6.9599789e+01   6.9620704e+01   6.9641620e+01   6.9662535e+01   6.9683451e+01   6.9704366e+01   6.9716422e+01   6.9617727e+01   6.9372841e+01   6.8990625e+01   6.8572969e+01   6.8162320e+01   6.7778223e+01   6.7324738e+01   6.6734147e+01   6.5973366e+01   6.5138333e+01   6.4289762e+01   6.3441190e+01   6.2596270e+01   6.2188504e+01   6.2344148e+01   6.3059551e+01   6.3901210e+01   6.4742730e+01   6.5583970e+01   6.6424932e+01   6.7362945e+01   6.8981301e+01   7.1474384e+01   7.4717500e+01   7.8100000e+01   8.1400000e+01   8.4515357e+01   8.7110571e+01   8.9240571e+01   9.1115914e+01   6.1378200e+01
0.0000000e+00   0.0000000e+00   0.0000000e+00   0.0000000e+00   0.0000000e+00   0.0000000e+00   0.0000000e+00   0.0000000e+00   0.0000000e+00   0.0000000e+00   0.0000000e+00   0.0000000e+00   0.0000000e+00   0.0000000e+00   0.0000000e+00   0.0000000e+00   0.0000000e+00   0.0000000e+00   0.0000000e+00   0.0000000e+00   0.0000000e+00   0.0000000e+00   0.0000000e+00   0.0000000e+00   0.0000000e+00   0.0000000e+00   0.0000000e+00   0.0000000e+00   0.0000000e+00   0.0000000e+00   0.0000000e+00   0.0000000e+00   0.0000000e+00   0.0000000e+00   0.0000000e+00   0.0000000e+00   0.0000000e+00   0.0000000e+00   0.0000000e+00   0.0000000e+00   0.0000000e+00   0.0000000e+00   0.0000000e+00   0.0000000e+00   1.3420000e+00   3.6740000e+00   6.9666667e+00   1.4388000e+01   2.3771000e+01   3.0219679e+01   3.2549423e+01   3.2837557e+01   3.4990987e+01   3.5684328e+01   3.5359254e+01   3.5204799e+01   3.6415304e+01   3.9502629e+01   4.4296154e+01   4.9289231e+01   5.4146703e+01   5.9756190e+01   6.7317619e+01   7.6876190e+01   8.3966667e+01   8.7701429e+01   8.7858571e+01   8.8015714e+01   8.8199803e+01   8.8437782e+01   8.8743125e+01   8.9129305e+01   8.9640989e+01   9.1065288e+01   9.4001051e+01   9.8440594e+01   1.0358333e+02   1.0879000e+02   1.1200739e+02   1.1273820e+02   1.1098241e+02   1.0872931e+02   1.0645405e+02   1.0421405e+02   1.0209126e+02   1.0010786e+02   9.8206429e+01   9.6305000e+01   9.4403571e+01   9.2502143e+01   9.0600714e+01   8.9347063e+01   8.9361468e+01   9.0485040e+01   9.3450893e+01   9.5026250e+01   9.0254269e+01   8.3336957e+01   7.6663623e+01   7.5275604e+01   7.3704384e+01   7.2222174e+01   7.0975075e+01   6.9956261e+01   6.9224270e+01   6.8850805e+01   6.8728310e+01   6.8749225e+01   6.8770141e+01   6.8791056e+01   6.8811972e+01   6.8797447e+01   6.8645592e+01   6.8347546e+01   6.7938750e+01   6.7535108e+01   6.7159495e+01   6.6762464e+01   6.6186827e+01   6.5439524e+01   6.4570000e+01   6.3721429e+01   6.2872857e+01   6.2024286e+01   6.1186667e+01   6.0609165e+01   6.0519041e+01   6.0981096e+01   6.1746164e+01   6.2586986e+01   6.3427808e+01   6.4268630e+01   6.5433425e+01   6.7440548e+01   7.0322397e+01   7.3755000e+01   7.7192500e+01   8.0575000e+01   8.3563857e+01   8.5953214e+01   8.7865714e+01   8.9351657e+01   6.0094800e+01
0.0000000e+00   0.0000000e+00   0.0000000e+00   0.0000000e+00   0.0000000e+00   0.0000000e+00   0.0000000e+00   0.0000000e+00   0.0000000e+00   0.0000000e+00   0.0000000e+00   0.0000000e+00   0.0000000e+00   0.0000000e+00   0.0000000e+00   0.0000000e+00   0.0000000e+00   0.0000000e+00   0.0000000e+00   0.0000000e+00   0.0000000e+00   0.0000000e+00   0.0000000e+00   0.0000000e+00   0.0000000e+00   0.0000000e+00   0.0000000e+00   0.0000000e+00   0.0000000e+00   0.0000000e+00   0.0000000e+00   0.0000000e+00   0.0000000e+00   0.0000000e+00   0.0000000e+00   0.0000000e+00   0.0000000e+00   0.0000000e+00   0.0000000e+00   0.0000000e+00   0.0000000e+00   0.0000000e+00   0.0000000e+00   0.0000000e+00   1.3126667e+00   3.7668889e+00   6.6048889e+00   1.6420556e+01   2.2958833e+01   2.8802372e+01   2.8538654e+01   3.1830034e+01   3.5324018e+01   3.6526567e+01   3.6201493e+01   3.6502024e+01   3.8565630e+01   4.2506054e+01   4.7697692e+01   5.2846923e+01   5.7527692e+01   6.2183810e+01   6.7859048e+01   7.5753333e+01   8.1956190e+01   8.5580000e+01   8.5777561e+01   8.6029013e+01   8.6361302e+01   8.6760955e+01   8.7227971e+01   8.7787759e+01   8.8532731e+01   8.9688935e+01   9.1971144e+01   9.5643562e+01   1.0046667e+02   1.0550756e+02   1.0822764e+02   1.0846112e+02   1.0637379e+02   1.0424455e+02   1.0254880e+02   1.0159619e+02   1.0063563e+02   9.9357500e+01   9.7452143e+01   9.5546786e+01   9.3641429e+01   9.1736071e+01   8.9830714e+01   8.7925357e+01   8.7189929e+01   8.7155226e+01   8.9116893e+01   8.9865417e+01   8.7026739e+01   8.2351739e+01   7.7768406e+01   7.6120000e+01   7.4458043e+01   7.2959493e+01   7.1624348e+01   7.0390418e+01   6.9299899e+01   6.8496202e+01   6.8051032e+01   6.7892684e+01   6.7877746e+01   6.7898662e+01   6.7919577e+01   6.7860753e+01   6.7655737e+01   6.7304531e+01   6.6907897e+01   6.6546298e+01   6.6233750e+01   6.5836322e+01   6.5223553e+01   6.4412857e+01   6.3522381e+01   6.2668571e+01   6.1820000e+01   6.0971429e+01   6.0144762e+01   5.9401455e+01   5.8968767e+01   5.9052055e+01   5.9615114e+01   6.0430685e+01   6.1271507e+01   6.2177123e+01   6.3698288e+01   6.6094178e+01   6.9300000e+01   7.2765000e+01   7.6195000e+01   7.9539167e+01   8.2377167e+01   8.4623167e+01   8.6439000e+01   8.7587400e+01   5.8811400e+01
0.0000000e+00   0.0000000e+00   0.0000000e+00   0.0000000e+00   0.0000000e+00   0.0000000e+00   0.0000000e+00   0.0000000e+00   0.0000000e+00   0.0000000e+00   0.0000000e+00   0.0000000e+00   0.0000000e+00   0.0000000e+00   0.0000000e+00   0.0000000e+00   0.0000000e+00   0.0000000e+00   0.0000000e+00   0.0000000e+00   0.0000000e+00   0.0000000e+00   0.0000000e+00   0.0000000e+00   0.0000000e+00   0.0000000e+00   0.0000000e+00   0.0000000e+00   0.0000000e+00   0.0000000e+00   0.0000000e+00   0.0000000e+00   0.0000000e+00   0.0000000e+00   0.0000000e+00   0.0000000e+00   0.0000000e+00   0.0000000e+00   0.0000000e+00   0.0000000e+00   0.0000000e+00   0.0000000e+00   0.0000000e+00   0.0000000e+00   1.2833333e+00   3.7840000e+00   6.8200000e+00   1.8901667e+01   2.3502346e+01   2.8919423e+01   2.6190577e+01   3.1568990e+01   3.5572181e+01   3.7283938e+01   3.7157478e+01   3.8197363e+01   4.1114068e+01   4.5793846e+01   5.1099231e+01   5.6352564e+01   6.1189487e+01   6.5557949e+01   7.0064762e+01   7.5961905e+01   8.0665320e+01   8.3620245e+01   8.3979479e+01   8.4392604e+01   8.4886566e+01   8.5447891e+01   8.6063108e+01   8.6753013e+01   8.7610016e+01   8.8646053e+01   9.0324798e+01   9.3230093e+01   9.7477854e+01   1.0205935e+02   1.0428211e+02   1.0401828e+02   1.0195096e+02   1.0037906e+02   9.9612238e+01   9.9774335e+01   9.9555612e+01   9.8646429e+01   9.6737143e+01   9.4827857e+01   9.2918571e+01   9.1009286e+01   8.9148714e+01   8.7434286e+01   8.5963429e+01   8.4736143e+01   8.4663726e+01   8.5122583e+01   8.4040917e+01   8.1708000e+01   7.8650000e+01   7.6890000e+01   7.5211703e+01   7.3696812e+01   7.2345326e+01   7.1075543e+01   6.9805761e+01   6.8679389e+01   6.7803987e+01   6.7287111e+01   6.7057058e+01   6.7006268e+01   6.7013893e+01   6.6901908e+01   6.6650740e+01   6.6287692e+01   6.5940108e+01   6.5641575e+01   6.5385084e+01   6.4959231e+01   6.4288284e+01   6.3393175e+01   6.2481746e+01   6.1615714e+01   6.0767143e+01   5.9922222e+01   5.9106508e+01   5.8323651e+01   5.7671005e+01   5.7375525e+01   5.7610320e+01   5.8274384e+01   5.9115205e+01   6.0215205e+01   6.2125137e+01   6.4909795e+01   6.8298333e+01   7.1693333e+01   7.4995000e+01   7.8191667e+01   8.0948810e+01   8.3172286e+01   8.5012286e+01   8.5823143e+01   5.7528000e+01
0.0000000e+00   0.0000000e+00   0.0000000e+00   0.0000000e+00   0.0000000e+00   0.0000000e+00   0.0000000e+00   0.0000000e+00   0.0000000e+00   0.0000000e+00   0.0000000e+00   0.0000000e+00   0.0000000e+00   0.0000000e+00   0.0000000e+00   0.0000000e+00   0.0000000e+00   0.0000000e+00   0.0000000e+00   0.0000000e+00   0.0000000e+00   0.0000000e+00   0.0000000e+00   0.0000000e+00   0.0000000e+00   0.0000000e+00   0.0000000e+00   0.0000000e+00   0.0000000e+00   0.0000000e+00   0.0000000e+00   0.0000000e+00   0.0000000e+00   0.0000000e+00   0.0000000e+00   0.0000000e+00   0.0000000e+00   0.0000000e+00   0.0000000e+00   0.0000000e+00   0.0000000e+00   0.0000000e+00   0.0000000e+00   0.0000000e+00   1.2540000e+00   3.7253333e+00   6.9593333e+00   1.6320333e+01   1.9890538e+01   2.4881154e+01   2.4673846e+01   3.1138209e+01   3.5650608e+01   3.7871573e+01   3.8397830e+01   4.0290815e+01   4.4060620e+01   4.9195385e+01   5.4500769e+01   5.9806154e+01   6.4799231e+01   6.9323846e+01   7.3213750e+01   7.7280714e+01   8.0162132e+01   8.2069963e+01   8.2545161e+01   8.3119959e+01   8.3748649e+01   8.4390811e+01   8.5032973e+01   8.5782556e+01   8.6711172e+01   8.7818824e+01   8.9125942e+01   9.1264112e+01   9.4744749e+01   9.8445364e+01   1.0017080e+02   9.9657368e+01   9.8209331e+01   9.7628290e+01   9.7914243e+01   9.8757551e+01   9.8848469e+01   9.7939286e+01   9.6030000e+01   9.4120714e+01   9.2211429e+01   9.0448286e+01   8.8880000e+01   8.7604000e+01   8.6571571e+01   8.5782714e+01   8.3248000e+01   8.2654000e+01   8.1446444e+01   8.1629778e+01   7.9532444e+01   7.7660000e+01   7.5965362e+01   7.4434130e+01   7.3066304e+01   7.1796522e+01   7.0526739e+01   6.9256957e+01   6.8094732e+01   6.7147624e+01   6.6523190e+01   6.6221431e+01   6.6090489e+01   6.5939358e+01   6.5670065e+01   6.5340925e+01   6.5056406e+01   6.4806923e+01   6.4557308e+01   6.4075000e+01   6.3338846e+01   6.2383968e+01   6.1451587e+01   6.0566349e+01   5.9714286e+01   5.8876667e+01   5.8071905e+01   5.7300000e+01   5.6550000e+01   5.5976758e+01   5.5832785e+01   5.6219087e+01   5.6991301e+01   5.8415274e+01   6.0713973e+01   6.3808333e+01   6.7156667e+01   7.0388333e+01   7.3515000e+01   7.6536667e+01   7.9306286e+01   8.1600571e+01   8.3585571e+01   8.4058886e+01   5.6244600e+01
0.0000000e+00   0.0000000e+00   0.0000000e+00   0.0000000e+00   0.0000000e+00   0.0000000e+00   0.0000000e+00   0.0000000e+00   0.0000000e+00   0.0000000e+00   0.0000000e+00   0.0000000e+00   0.0000000e+00   0.0000000e+00   0.0000000e+00   0.0000000e+00   0.0000000e+00   0.0000000e+00   0.0000000e+00   0.0000000e+00   0.0000000e+00   0.0000000e+00   0.0000000e+00   0.0000000e+00   0.0000000e+00   0.0000000e+00   0.0000000e+00   0.0000000e+00   0.0000000e+00   0.0000000e+00   0.0000000e+00   0.0000000e+00   0.0000000e+00   0.0000000e+00   0.0000000e+00   0.0000000e+00   0.0000000e+00   0.0000000e+00   0.0000000e+00   0.0000000e+00   0.0000000e+00   0.0000000e+00   0.0000000e+00   0.0000000e+00   1.2246667e+00   3.6666667e+00   7.0986667e+00   1.3134000e+01   1.6491538e+01   2.1055692e+01   2.3974923e+01   3.0537692e+01   3.5559300e+01   3.8346345e+01   3.9979422e+01   4.2725507e+01   4.7291538e+01   5.2596923e+01   5.7902308e+01   6.3207692e+01   6.8356923e+01   7.2705192e+01   7.6086250e+01   7.8490000e+01   8.0039743e+01   8.0965723e+01   8.1470757e+01   8.2076351e+01   8.2718514e+01   8.3360676e+01   8.4026709e+01   8.4847905e+01   8.5848136e+01   8.7003529e+01   8.8182794e+01   8.9745621e+01   9.2459134e+01   9.5023160e+01   9.6369143e+01   9.6039599e+01   9.5644342e+01   9.6054152e+01   9.6959388e+01   9.8050408e+01   9.8141327e+01   9.7232143e+01   9.5322857e+01   9.3511000e+01   9.1845286e+01   9.0471857e+01   8.9342000e+01   8.8504429e+01   8.7813000e+01   8.7219000e+01   8.4128000e+01   8.3633000e+01   8.2412000e+01   8.3074444e+01   8.0639778e+01   7.8542444e+01   7.6719022e+01   7.5171449e+01   7.3787283e+01   7.2517500e+01   7.1247717e+01   6.9977935e+01   6.8708152e+01   6.7510075e+01   6.6491261e+01   6.5759270e+01   6.5313797e+01   6.5008138e+01   6.4748750e+01   6.4478245e+01   6.4235769e+01   6.4007308e+01   6.3715385e+01   6.3169615e+01   6.2370000e+01   6.1383492e+01   6.0430159e+01   5.9523968e+01   5.8661429e+01   5.7834762e+01   5.7040952e+01   5.6280000e+01   5.5530000e+01   5.4805251e+01   5.4333014e+01   5.4340548e+01   5.5047489e+01   5.6786393e+01   5.9392192e+01   6.2573333e+01   6.5746667e+01   6.8803333e+01   7.1790000e+01   7.4730000e+01   7.7583905e+01   8.0007333e+01   8.2137333e+01   8.2294629e+01   5.4961200e+01
0.0000000e+00   0.0000000e+00   0.0000000e+00   0.0000000e+00   0.0000000e+00   0.0000000e+00   0.0000000e+00   0.0000000e+00   0.0000000e+00   0.0000000e+00   0.0000000e+00   0.0000000e+00   0.0000000e+00   0.0000000e+00   0.0000000e+00   0.0000000e+00   0.0000000e+00   0.0000000e+00   0.0000000e+00   0.0000000e+00   0.0000000e+00   0.0000000e+00   0.0000000e+00   0.0000000e+00   0.0000000e+00   0.0000000e+00   0.0000000e+00   0.0000000e+00   0.0000000e+00   0.0000000e+00   0.0000000e+00   0.0000000e+00   0.0000000e+00   0.0000000e+00   0.0000000e+00   0.0000000e+00   0.0000000e+00   0.0000000e+00   0.0000000e+00   0.0000000e+00   0.0000000e+00   0.0000000e+00   0.0000000e+00   0.0000000e+00   1.1953333e+00   3.6080000e+00   7.1170000e+00   9.2216667e+00   1.2332692e+01   1.6564308e+01   2.3208308e+01   2.9818462e+01   3.5376354e+01   3.9020616e+01   4.2016001e+01   4.5615186e+01   5.0693077e+01   5.5885641e+01   6.0965385e+01   6.5748974e+01   7.0174957e+01   7.4073771e+01   7.6969028e+01   7.8868750e+01   7.9698642e+01   8.0182419e+01   8.0550324e+01   8.1073642e+01   8.1688378e+01   8.2330541e+01   8.3044316e+01   8.3937126e+01   8.5008971e+01   8.6188235e+01   8.7367500e+01   8.8610692e+01   9.0557081e+01   9.2228234e+01   9.3372548e+01   9.3660394e+01   9.4194061e+01   9.5161224e+01   9.6252245e+01   9.7343265e+01   9.7434184e+01   9.6573714e+01   9.4859286e+01   9.3388429e+01   9.2161143e+01   9.1226143e+01   9.0486000e+01   8.9892000e+01   8.9298000e+01   8.8704000e+01   8.5008000e+01   8.4612000e+01   8.3490000e+01   8.4744000e+01   8.2084444e+01   7.9649778e+01   7.7585126e+01   7.5908768e+01   7.4508261e+01   7.3238478e+01   7.1968696e+01   7.0686957e+01   6.9381304e+01   6.8051739e+01   6.6746070e+01   6.5586868e+01   6.4730982e+01   6.4203256e+01   6.3900084e+01   6.3664615e+01   6.3436154e+01   6.3207692e+01   6.2852308e+01   6.2243077e+01   6.1380000e+01   6.0390000e+01   5.9417460e+01   5.8490317e+01   5.7613968e+01   5.6796508e+01   5.6013651e+01   5.5260000e+01   5.4510000e+01   5.3760000e+01   5.3085753e+01   5.2714521e+01   5.3301187e+01   5.5135434e+01   5.7955000e+01   6.1058333e+01   6.4068333e+01   6.7020000e+01   6.9960000e+01   7.2900000e+01   7.5818476e+01   7.8371048e+01   8.0646048e+01   8.0530371e+01   5.3677800e+01
0.0000000e+00   0.0000000e+00   0.0000000e+00   0.0000000e+00   0.0000000e+00   0.0000000e+00   0.0000000e+00   0.0000000e+00   0.0000000e+00   0.0000000e+00   0.0000000e+00   0.0000000e+00   0.0000000e+00   0.0000000e+00   0.0000000e+00   0.0000000e+00   0.0000000e+00   0.0000000e+00   0.0000000e+00   0.0000000e+00   0.0000000e+00   0.0000000e+00   0.0000000e+00   0.0000000e+00   0.0000000e+00   0.0000000e+00   0.0000000e+00   0.0000000e+00   0.0000000e+00   0.0000000e+00   0.0000000e+00   0.0000000e+00   0.0000000e+00   0.0000000e+00   0.0000000e+00   0.0000000e+00   0.0000000e+00   0.0000000e+00   0.0000000e+00   0.0000000e+00   0.0000000e+00   0.0000000e+00   0.0000000e+00   0.0000000e+00   1.1660000e+00   3.5493333e+00   7.0143333e+00   8.8183333e+00   1.1649000e+01   1.5635231e+01   2.2340154e+01   2.9011231e+01   3.5139254e+01   3.9846126e+01   4.3998485e+01   4.8112308e+01   5.3079231e+01   5.7872222e+01   6.2246838e+01   6.6019744e+01   6.9242650e+01   7.3011207e+01   7.6028333e+01   7.8416250e+01   7.9070750e+01   7.9490534e+01   7.9739595e+01   8.0134926e+01   8.0676527e+01   8.1312341e+01   8.2097731e+01   8.3062154e+01   8.4193676e+01   8.5372941e+01   8.6543424e+01   8.7700735e+01   8.9100582e+01   9.0280734e+01   9.1389449e+01   9.2232949e+01   9.3282245e+01   9.4393469e+01   9.5504694e+01   9.6615918e+01   9.6866449e+01   9.6305000e+01   9.5029000e+01   9.3996571e+01   9.3207714e+01   9.2565000e+01   9.1971000e+01   9.1377000e+01   9.0783000e+01   9.0189000e+01   8.5888000e+01   8.5591000e+01   8.4568000e+01   8.6526000e+01   8.3754000e+01   8.1094444e+01   7.8676118e+01   7.6734618e+01   7.5157500e+01   7.3815978e+01   7.2474457e+01   7.1120978e+01   6.9743587e+01   6.8342283e+01   6.6932077e+01   6.5527983e+01   6.4377138e+01   6.3566650e+01   6.3144983e+01   6.2865000e+01   6.2636538e+01   6.2408077e+01   6.1989231e+01   6.1316538e+01   6.0390000e+01   5.9400000e+01   5.8415238e+01   5.7467143e+01   5.6577143e+01   5.5761905e+01   5.4990000e+01   5.4240000e+01   5.3485333e+01   5.2726000e+01   5.1962000e+01   5.1324256e+01   5.1835656e+01   5.3602456e+01   5.6463400e+01   5.9395600e+01   6.2292800e+01   6.5204267e+01   6.8130000e+01   7.1070000e+01   7.4010000e+01   7.6691714e+01   7.9111714e+01   7.8766114e+01   5.2394400e+01
0.0000000e+00   0.0000000e+00   0.0000000e+00   0.0000000e+00   0.0000000e+00   0.0000000e+00   0.0000000e+00   0.0000000e+00   0.0000000e+00   0.0000000e+00   0.0000000e+00   0.0000000e+00   0.0000000e+00   0.0000000e+00   0.0000000e+00   0.0000000e+00   0.0000000e+00   0.0000000e+00   0.0000000e+00   0.0000000e+00   0.0000000e+00   0.0000000e+00   0.0000000e+00   0.0000000e+00   0.0000000e+00   0.0000000e+00   0.0000000e+00   0.0000000e+00   0.0000000e+00   0.0000000e+00   0.0000000e+00   0.0000000e+00   0.0000000e+00   0.0000000e+00   0.0000000e+00   0.0000000e+00   0.0000000e+00   0.0000000e+00   0.0000000e+00   0.0000000e+00   0.0000000e+00   0.0000000e+00   0.0000000e+00   0.0000000e+00   1.1366667e+00   3.4906667e+00   6.7906667e+00   8.2940000e+00   1.0831333e+01   1.4674000e+01   2.1428000e+01   2.8168462e+01   3.4718879e+01   4.0276418e+01   4.5138982e+01   4.9483077e+01   5.3867094e+01   5.7771624e+01   6.0952222e+01   6.3470000e+01   6.5437778e+01   6.9356528e+01   7.3435694e+01   7.7304028e+01   7.8452000e+01   7.8853500e+01   7.9029426e+01   7.9296770e+01   7.9719527e+01   8.0327155e+01   8.1175016e+01   8.2206663e+01   8.3356429e+01   8.4504958e+01   8.5635924e+01   8.6753718e+01   8.7858340e+01   8.8968971e+01   9.0090000e+01   9.1221429e+01   9.2352857e+01   9.3484286e+01   9.4600000e+01   9.5621429e+01   9.6017036e+01   9.5755786e+01   9.5013679e+01   9.4322250e+01   9.3728250e+01   9.3134250e+01   9.2540250e+01   9.1946250e+01   9.1352250e+01   9.0729571e+01   8.6128821e+01   8.5830294e+01   8.5038556e+01   8.7498889e+01   8.4931000e+01   8.2159000e+01   7.9504891e+01   7.7279862e+01   7.5507746e+01   7.4070652e+01   7.2657391e+01   7.1232174e+01   6.9783043e+01   6.8313056e+01   6.6837222e+01   6.5370556e+01   6.4100714e+01   6.3114803e+01   6.2499932e+01   6.2104026e+01   6.1836923e+01   6.1587308e+01   6.1105000e+01   6.0368846e+01   5.9400000e+01   5.8410000e+01   5.7420000e+01   5.6450952e+01   5.5546286e+01   5.4716952e+01   5.3942000e+01   5.3178000e+01   5.2409333e+01   5.1636000e+01   5.0858000e+01   5.0080000e+01   5.0512800e+01   5.2156400e+01   5.5010800e+01   5.7865200e+01   6.0719600e+01   6.3588267e+01   6.6471200e+01   6.9368400e+01   7.2265600e+01   7.5033657e+01   7.7570124e+01   7.7001857e+01   5.1111000e+01
0.0000000e+00   0.0000000e+00   0.0000000e+00   0.0000000e+00   0.0000000e+00   0.0000000e+00   0.0000000e+00   0.0000000e+00   0.0000000e+00   0.0000000e+00   0.0000000e+00   0.0000000e+00   0.0000000e+00   0.0000000e+00   0.0000000e+00   0.0000000e+00   0.0000000e+00   0.0000000e+00   0.0000000e+00   0.0000000e+00   0.0000000e+00   0.0000000e+00   0.0000000e+00   0.0000000e+00   0.0000000e+00   0.0000000e+00   0.0000000e+00   0.0000000e+00   0.0000000e+00   0.0000000e+00   0.0000000e+00   0.0000000e+00   0.0000000e+00   0.0000000e+00   0.0000000e+00   0.0000000e+00   0.0000000e+00   0.0000000e+00   0.0000000e+00   0.0000000e+00   0.0000000e+00   0.0000000e+00   0.0000000e+00   0.0000000e+00   1.1073333e+00   3.4093889e+00   6.5443889e+00   8.2970556e+00   1.0908333e+01   1.4740000e+01   2.1002667e+01   2.7470667e+01   3.4144000e+01   4.0091333e+01   4.5087778e+01   4.8950000e+01   5.2262222e+01   5.5024444e+01   5.7175556e+01   5.8960000e+01   6.0500000e+01   6.4790000e+01   7.0349583e+01   7.5698333e+01   7.7833250e+01   7.8234750e+01   7.8383250e+01   7.8568318e+01   7.8853946e+01   7.9398377e+01   8.0236656e+01   8.1300399e+01   8.2422584e+01   8.3531597e+01   8.4623046e+01   8.5701324e+01   8.6766429e+01   8.7857449e+01   8.8978776e+01   9.0130408e+01   9.1282041e+01   9.2402245e+01   9.3412449e+01   9.4234082e+01   9.4696194e+01   9.4781893e+01   9.4474286e+01   9.3975750e+01   9.3381750e+01   9.2787750e+01   9.2193750e+01   9.1599750e+01   9.1005750e+01   9.0325714e+01   8.5730464e+01   8.5329881e+01   8.4766815e+01   8.7527815e+01   8.5368148e+01   8.2731000e+01   7.9959000e+01   7.7544500e+01   7.5559000e+01   7.4002500e+01   7.2517500e+01   7.1032500e+01   6.9550556e+01   6.8074722e+01   6.6608056e+01   6.5147500e+01   6.3867833e+01   6.2791761e+01   6.2009444e+01   6.1433214e+01   6.1063068e+01   6.0745385e+01   6.0199615e+01   5.9400000e+01   5.8410000e+01   5.7420000e+01   5.6430000e+01   5.5446984e+01   5.4522734e+01   5.3660901e+01   5.2857250e+01   5.2065500e+01   5.1277333e+01   5.0490000e+01   4.9698000e+01   4.8906000e+01   4.9315200e+01   5.0925600e+01   5.3737200e+01   5.6548800e+01   5.9360400e+01   6.2186267e+01   6.5038643e+01   6.7942017e+01   7.0864339e+01   7.3643616e+01   7.6176243e+01   7.5246055e+01   4.9827600e+01
0.0000000e+00   0.0000000e+00   0.0000000e+00   0.0000000e+00   0.0000000e+00   0.0000000e+00   0.0000000e+00   0.0000000e+00   0.0000000e+00   0.0000000e+00   0.0000000e+00   0.0000000e+00   0.0000000e+00   0.0000000e+00   0.0000000e+00   0.0000000e+00   0.0000000e+00   0.0000000e+00   0.0000000e+00   0.0000000e+00   0.0000000e+00   0.0000000e+00   0.0000000e+00   0.0000000e+00   0.0000000e+00   0.0000000e+00   0.0000000e+00   0.0000000e+00   0.0000000e+00   0.0000000e+00   0.0000000e+00   0.0000000e+00   0.0000000e+00   0.0000000e+00   0.0000000e+00   0.0000000e+00   0.0000000e+00   0.0000000e+00   0.0000000e+00   0.0000000e+00   0.0000000e+00   0.0000000e+00   0.0000000e+00   0.0000000e+00   1.0780000e+00   3.2828889e+00   5.3178889e+00   7.8698889e+00   1.1150333e+01   1.6456000e+01   2.2124667e+01   2.7998667e+01   3.4078000e+01   3.9323778e+01   4.3511111e+01   4.6456667e+01   4.8852222e+01   5.0758889e+01   5.2360000e+01   5.3900000e+01   5.5440000e+01   5.9730000e+01   6.6276528e+01   7.3105694e+01   7.6721028e+01   7.7616000e+01   7.7756250e+01   7.7880000e+01   7.8032959e+01   7.8479684e+01   7.9252296e+01   8.0308550e+01   8.1383361e+01   8.2452857e+01   8.3513571e+01   8.4574286e+01   8.5635000e+01   8.6726020e+01   8.7847347e+01   8.8998980e+01   9.0103469e+01   9.1082245e+01   9.1856735e+01   9.2395510e+01   9.2764515e+01   9.2946857e+01   9.2925643e+01   9.2618036e+01   9.2119500e+01   9.1525500e+01   9.0931500e+01   9.0337500e+01   8.9743500e+01   8.8977429e+01   8.4692929e+01   8.4089762e+01   8.3752778e+01   8.6477926e+01   8.4930593e+01   8.2563148e+01   7.9926000e+01   7.7440000e+01   7.5383000e+01   7.3755000e+01   7.2270000e+01   7.0788056e+01   6.9312222e+01   6.7845556e+01   6.6385000e+01   6.4927500e+01   6.3647833e+01   6.2546000e+01   6.1660641e+01   6.0904085e+01   6.0366496e+01   5.9895188e+01   5.9273077e+01   5.8410000e+01   5.7420000e+01   5.6430000e+01   5.5440000e+01   5.4450000e+01   5.3509500e+01   5.2618500e+01   5.1779750e+01   5.0949250e+01   5.0127000e+01   4.9315750e+01   4.8512750e+01   4.7718000e+01   4.8127200e+01   4.9737600e+01   5.2549200e+01   5.5385287e+01   5.8258104e+01   6.1167652e+01   6.4101687e+01   6.7036886e+01   6.9866549e+01   7.2471734e+01   7.4842318e+01   7.3498707e+01   4.8544200e+01
0.0000000e+00   0.0000000e+00   0.0000000e+00   0.0000000e+00   0.0000000e+00   0.0000000e+00   0.0000000e+00   0.0000000e+00   0.0000000e+00   0.0000000e+00   0.0000000e+00   0.0000000e+00   0.0000000e+00   0.0000000e+00   0.0000000e+00   0.0000000e+00   0.0000000e+00   0.0000000e+00   0.0000000e+00   0.0000000e+00   0.0000000e+00   0.0000000e+00   0.0000000e+00   0.0000000e+00   0.0000000e+00   0.0000000e+00   0.0000000e+00   0.0000000e+00   0.0000000e+00   0.0000000e+00   0.0000000e+00   0.0000000e+00   0.0000000e+00   0.0000000e+00   0.0000000e+00   0.0000000e+00   0.0000000e+00   0.0000000e+00   0.0000000e+00   0.0000000e+00   0.0000000e+00   0.0000000e+00   0.0000000e+00   0.0000000e+00   1.0486667e+00   2.4786667e+00   3.4686667e+00   7.3700000e+00   1.2388750e+01   1.9346250e+01   2.3945167e+01   2.8749417e+01   3.3882750e+01   3.8048694e+01   4.1022361e+01   4.2681528e+01   4.4220000e+01   4.5760000e+01   4.7300000e+01   4.8840000e+01   5.0380000e+01   5.4670000e+01   6.1710000e+01   7.0019583e+01   7.5098833e+01   7.6947750e+01   7.7038500e+01   7.7112750e+01   7.7170500e+01   7.7541357e+01   7.8233571e+01   7.9255000e+01   8.0284286e+01   8.1329286e+01   8.2382143e+01   8.3442857e+01   8.4503571e+01   8.5594592e+01   8.6715918e+01   8.7804694e+01   8.8752041e+01   8.9479388e+01   8.9986735e+01   9.0352653e+01   9.0643087e+01   9.0920893e+01   9.1090607e+01   9.1069393e+01   9.0761786e+01   9.0263250e+01   8.9669250e+01   8.9075250e+01   8.8481250e+01   8.7629143e+01   8.3655393e+01   8.2849643e+01   8.2603889e+01   8.5158333e+01   8.4088481e+01   8.2125593e+01   7.9758148e+01   7.7335500e+01   7.5207000e+01   7.3507500e+01   7.2025556e+01   7.0549722e+01   6.9083056e+01   6.7622500e+01   6.6165000e+01   6.4707500e+01   6.3427833e+01   6.2326000e+01   6.1402000e+01   6.0529521e+01   5.9798726e+01   5.9109393e+01   5.8346538e+01   5.7420000e+01   5.6430000e+01   5.5440000e+01   5.4450000e+01   5.3460000e+01   5.2511250e+01   5.1603750e+01   5.0740250e+01   4.9885000e+01   4.9038000e+01   4.8202000e+01   4.7374250e+01   4.6554750e+01   4.6984180e+01   4.8659791e+01   5.1581583e+01   5.4527861e+01   5.7510870e+01   6.0530609e+01   6.3521485e+01   6.6389043e+01   6.9026583e+01   7.1368512e+01   7.3554085e+01   7.1759814e+01   4.7260800e+01
0.0000000e+00   0.0000000e+00   0.0000000e+00   0.0000000e+00   0.0000000e+00   0.0000000e+00   0.0000000e+00   0.0000000e+00   0.0000000e+00   0.0000000e+00   0.0000000e+00   0.0000000e+00   0.0000000e+00   0.0000000e+00   0.0000000e+00   0.0000000e+00   0.0000000e+00   0.0000000e+00   0.0000000e+00   0.0000000e+00   0.0000000e+00   0.0000000e+00   0.0000000e+00   0.0000000e+00   0.0000000e+00   0.0000000e+00   0.0000000e+00   0.0000000e+00   0.0000000e+00   0.0000000e+00   0.0000000e+00   0.0000000e+00   0.0000000e+00   0.0000000e+00   0.0000000e+00   0.0000000e+00   0.0000000e+00   0.0000000e+00   0.0000000e+00   0.0000000e+00   0.0000000e+00   0.0000000e+00   0.0000000e+00   0.0000000e+00   1.0193333e+00   1.7068333e+00   1.7068333e+00   4.4275000e+00   1.0601250e+01   1.8810000e+01   2.4626250e+01   2.8792500e+01   3.3206250e+01   3.6416111e+01   3.8298333e+01   3.8914028e+01   3.9714583e+01   4.0884861e+01   4.2240000e+01   4.3780000e+01   4.5320000e+01   4.9610000e+01   5.6650000e+01   6.5698750e+01   7.2200667e+01   7.5455750e+01   7.6197000e+01   7.6221750e+01   7.6230000e+01   7.6560000e+01   7.7220000e+01   7.8217857e+01   7.9223571e+01   8.0245000e+01   8.1274286e+01   8.2319286e+01   8.3372143e+01   8.4463163e+01   8.5505918e+01   8.6421837e+01   8.7102041e+01   8.7577959e+01   8.7928163e+01   8.8231224e+01   8.8521658e+01   8.8799464e+01   8.9064643e+01   8.9234357e+01   8.9213143e+01   8.8905536e+01   8.8407000e+01   8.7813000e+01   8.7190321e+01   8.6252179e+01   8.2589179e+01   8.1609524e+01   8.1455000e+01   8.3703889e+01   8.2976667e+01   8.1283481e+01   7.9320593e+01   7.7096148e+01   7.5031000e+01   7.3263056e+01   7.1787222e+01   7.0320556e+01   6.8860000e+01   6.7402500e+01   6.5945000e+01   6.4487500e+01   6.3207833e+01   6.2106000e+01   6.1182000e+01   6.0236552e+01   5.9323334e+01   5.8389556e+01   5.7443004e+01   5.6442222e+01   5.5440000e+01   5.4450000e+01   5.3460000e+01   5.2470000e+01   5.1521250e+01   5.0613750e+01   4.9747500e+01   4.8881250e+01   4.8015000e+01   4.7154250e+01   4.6333179e+01   4.5551786e+01   4.6101881e+01   4.7911709e+01   5.0981270e+01   5.4037739e+01   5.7130939e+01   6.0189737e+01   6.3082945e+01   6.5691623e+01   6.7997985e+01   7.0108732e+01   7.2178099e+01   7.0020921e+01   4.5977400e+01
0.0000000e+00   0.0000000e+00   0.0000000e+00   0.0000000e+00   0.0000000e+00   0.0000000e+00   0.0000000e+00   0.0000000e+00   0.0000000e+00   0.0000000e+00   0.0000000e+00   0.0000000e+00   0.0000000e+00   0.0000000e+00   0.0000000e+00   0.0000000e+00   0.0000000e+00   0.0000000e+00   0.0000000e+00   0.0000000e+00   0.0000000e+00   0.0000000e+00   0.0000000e+00   0.0000000e+00   0.0000000e+00   0.0000000e+00   0.0000000e+00   0.0000000e+00   0.0000000e+00   0.0000000e+00   0.0000000e+00   0.0000000e+00   0.0000000e+00   0.0000000e+00   0.0000000e+00   0.0000000e+00   0.0000000e+00   0.0000000e+00   0.0000000e+00   0.0000000e+00   0.0000000e+00   0.0000000e+00   0.0000000e+00   0.0000000e+00   6.6977778e-01   6.6977778e-01   6.6977778e-01   2.0900000e+00   8.6075000e+00   1.6321250e+01   2.3265000e+01   2.7225000e+01   3.1556250e+01   3.4526250e+01   3.6011250e+01   3.6072361e+01   3.6318333e+01   3.6934028e+01   3.7734583e+01   3.8904861e+01   4.0260000e+01   4.4550000e+01   5.1342222e+01   6.0388889e+01   6.7712222e+01   7.2580000e+01   7.4680000e+01   7.5240000e+01   7.5240000e+01   7.5570000e+01   7.6230000e+01   7.7220000e+01   7.8210000e+01   7.9207857e+01   8.0213571e+01   8.1235000e+01   8.2264286e+01   8.3245306e+01   8.4091633e+01   8.4724694e+01   8.5169184e+01   8.5503673e+01   8.5806735e+01   8.6109796e+01   8.6400230e+01   8.6678036e+01   8.6943214e+01   8.7208393e+01   8.7378107e+01   8.7356893e+01   8.7049286e+01   8.6550750e+01   8.5870714e+01   8.4846536e+01   8.1494286e+01   8.0369405e+01   8.0271481e+01   8.2214815e+01   8.1695370e+01   8.0171667e+01   7.8478481e+01   7.6587093e+01   7.4723204e+01   7.3024722e+01   7.1558056e+01   7.0097500e+01   6.8640000e+01   6.7182500e+01   6.5725000e+01   6.4267500e+01   6.2987833e+01   6.1875276e+01   6.0908380e+01   5.9887864e+01   5.8813728e+01   5.7706920e+01   5.6603214e+01   5.5525556e+01   5.4482593e+01   5.3468148e+01   5.2470000e+01   5.1480000e+01   5.0531250e+01   4.9623750e+01   4.8757500e+01   4.7891250e+01   4.7056429e+01   4.6253036e+01   4.5512500e+01   4.4803393e+01   4.5511731e+01   4.7493354e+01   5.0748261e+01   5.3890435e+01   5.6943693e+01   5.9801335e+01   6.2356663e+01   6.4627459e+01   6.6720423e+01   6.8742254e+01   7.0802113e+01   6.8282028e+01   4.4694000e+01
0.0000000e+00   0.0000000e+00   0.0000000e+00   0.0000000e+00   0.0000000e+00   0.0000000e+00   0.0000000e+00   0.0000000e+00   0.0000000e+00   0.0000000e+00   0.0000000e+00   0.0000000e+00   0.0000000e+00   0.0000000e+00   0.0000000e+00   0.0000000e+00   0.0000000e+00   0.0000000e+00   0.0000000e+00   0.0000000e+00   0.0000000e+00   0.0000000e+00   0.0000000e+00   0.0000000e+00   0.0000000e+00   0.0000000e+00   0.0000000e+00   0.0000000e+00   0.0000000e+00   0.0000000e+00   0.0000000e+00   0.0000000e+00   0.0000000e+00   0.0000000e+00   0.0000000e+00   0.0000000e+00   0.0000000e+00   0.0000000e+00   0.0000000e+00   0.0000000e+00   0.0000000e+00   0.0000000e+00   0.0000000e+00   0.0000000e+00   3.3000000e-01   3.3000000e-01   3.3000000e-01   0.0000000e+00   5.5687500e+00   1.2457500e+01   2.0790000e+01   2.5121250e+01   2.9700000e+01   3.2793750e+01   3.4278750e+01   3.4155000e+01   3.4031250e+01   3.4092361e+01   3.4338333e+01   3.4954028e+01   3.5754583e+01   3.9427083e+01   4.5538889e+01   5.3842222e+01   6.1510000e+01   6.7810000e+01   7.2010000e+01   7.3830000e+01   7.4250000e+01   7.4580000e+01   7.5240000e+01   7.6230000e+01   7.7220000e+01   7.8210000e+01   7.9200000e+01   8.0234524e+01   8.1313571e+01   8.2229490e+01   8.2859184e+01   8.3186939e+01   8.3420408e+01   8.3638163e+01   8.3855918e+01   8.4073673e+01   8.4307236e+01   8.4556607e+01   8.4821786e+01   8.5086964e+01   8.5352143e+01   8.5521857e+01   8.5500643e+01   8.5193036e+01   8.4522429e+01   8.3412214e+01   8.0370714e+01   7.9129286e+01   7.9018704e+01   8.0656481e+01   8.0344815e+01   7.8925000e+01   7.7366667e+01   7.5793929e+01   7.4278176e+01   7.2794753e+01   7.1358065e+01   6.9896720e+01   6.8435376e+01   6.6974032e+01   6.5512688e+01   6.4051344e+01   6.2736943e+01   6.1558760e+01   6.0495348e+01   5.9378315e+01   5.8207663e+01   5.7011673e+01   5.5832951e+01   5.4696153e+01   5.3602593e+01   5.2539259e+01   5.1504444e+01   5.0494074e+01   4.9541250e+01   4.8633750e+01   4.7798929e+01   4.6995536e+01   4.6255000e+01   4.5545893e+01   4.4899643e+01   4.4284821e+01   4.5131172e+01   4.7256957e+01   5.0624596e+01   5.3697648e+01   5.6519724e+01   5.9021702e+01   6.1256932e+01   6.3332113e+01   6.5353944e+01   6.7375775e+01   6.9426127e+01   6.6543135e+01   4.3410600e+01
0.0000000e+00   0.0000000e+00   0.0000000e+00   0.0000000e+00   0.0000000e+00   0.0000000e+00   0.0000000e+00   0.0000000e+00   0.0000000e+00   0.0000000e+00   0.0000000e+00   0.0000000e+00   0.0000000e+00   0.0000000e+00   0.0000000e+00   0.0000000e+00   0.0000000e+00   0.0000000e+00   0.0000000e+00   0.0000000e+00   0.0000000e+00   0.0000000e+00   0.0000000e+00   0.0000000e+00   0.0000000e+00   0.0000000e+00   0.0000000e+00   0.0000000e+00   0.0000000e+00   0.0000000e+00   0.0000000e+00   0.0000000e+00   0.0000000e+00   0.0000000e+00   0.0000000e+00   0.0000000e+00   0.0000000e+00   0.0000000e+00   0.0000000e+00   0.0000000e+00   0.0000000e+00   0.0000000e+00   0.0000000e+00   0.0000000e+00   0.0000000e+00   0.0000000e+00   0.0000000e+00   0.0000000e+00   4.9142500e+00   1.0744250e+01   1.7995083e+01   2.1899167e+01   2.6455000e+01   2.9923929e+01   3.2159286e+01   3.2910952e+01   3.3287440e+01   3.3288750e+01   3.3165000e+01   3.3226111e+01   3.3018333e+01   3.5418958e+01   3.9995347e+01   4.7268125e+01   5.4493750e+01   6.1640000e+01   6.7660000e+01   7.1440000e+01   7.2980000e+01   7.3590000e+01   7.4250000e+01   7.5240000e+01   7.6230000e+01   7.7256667e+01   7.8320000e+01   7.9456667e+01   8.0630000e+01   8.1480816e+01   8.1972449e+01   8.2104898e+01   8.2237347e+01   8.2369796e+01   8.2470816e+01   8.2493265e+01   8.2457160e+01   8.2498690e+01   8.2665000e+01   8.2936071e+01   8.3207143e+01   8.3478214e+01   8.3653821e+01   8.3638500e+01   8.3076714e+01   8.1977893e+01   7.9247143e+01   7.7889167e+01   7.7696667e+01   7.9028889e+01   7.8925000e+01   7.7678333e+01   7.6192460e+01   7.4923968e+01   7.3769658e+01   7.2573936e+01   7.1191882e+01   6.9726694e+01   6.8261505e+01   6.6814059e+01   6.5419839e+01   6.4078844e+01   6.2797537e+01   6.1508555e+01   6.0190450e+01   5.8848908e+01   5.7545695e+01   5.6303967e+01   5.5110920e+01   5.3943501e+01   5.2808148e+01   5.1695926e+01   5.0612222e+01   4.9552963e+01   4.8598975e+01   4.7738036e+01   4.6997500e+01   4.6288393e+01   4.5642143e+01   4.5027321e+01   4.4443929e+01   4.3860536e+01   4.4744464e+01   4.6982981e+01   5.0338871e+01   5.3238114e+01   5.5686742e+01   5.7886405e+01   5.9943803e+01   6.1965634e+01   6.3987465e+01   6.6009296e+01   6.8050141e+01   6.4804242e+01   4.2127200e+01
0.0000000e+00   0.0000000e+00   0.0000000e+00   0.0000000e+00   0.0000000e+00   0.0000000e+00   0.0000000e+00   0.0000000e+00   0.0000000e+00   0.0000000e+00   0.0000000e+00   0.0000000e+00   0.0000000e+00   0.0000000e+00   0.0000000e+00   0.0000000e+00   0.0000000e+00   0.0000000e+00   0.0000000e+00   0.0000000e+00   0.0000000e+00   0.0000000e+00   0.0000000e+00   0.0000000e+00   0.0000000e+00   0.0000000e+00   0.0000000e+00   0.0000000e+00   0.0000000e+00   0.0000000e+00   0.0000000e+00   0.0000000e+00   0.0000000e+00   0.0000000e+00   0.0000000e+00   0.0000000e+00   0.0000000e+00   0.0000000e+00   0.0000000e+00   0.0000000e+00   0.0000000e+00   0.0000000e+00   0.0000000e+00   0.0000000e+00   0.0000000e+00   0.0000000e+00   0.0000000e+00   0.0000000e+00   4.5540000e+00   9.5443333e+00   1.5502667e+01   1.8181167e+01   2.1990833e+01   2.5541607e+01   2.8527321e+01   3.0404524e+01   3.1906548e+01   3.2908333e+01   3.3409881e+01   3.3536250e+01   3.2051250e+01   3.2726250e+01   3.5561250e+01   4.1984375e+01   4.8608125e+01   5.5432500e+01   6.2104375e+01   6.7576875e+01   7.0870000e+01   7.2460000e+01   7.3260000e+01   7.4286667e+01   7.5350000e+01   7.6486667e+01   7.7660000e+01   7.8906667e+01   8.0190000e+01   8.1085714e+01   8.1557143e+01   8.1604286e+01   8.1651429e+01   8.1635714e+01   8.1510000e+01   8.1227143e+01   8.0874226e+01   8.0603155e+01   8.0565833e+01   8.0738036e+01   8.1015000e+01   8.1291964e+01   8.1541197e+01   8.1611773e+01   8.1205513e+01   8.0256994e+01   7.8059097e+01   7.6649048e+01   7.6340000e+01   7.7366667e+01   7.7470556e+01   7.6479974e+01   7.5163175e+01   7.4184524e+01   7.3353600e+01   7.2359217e+01   7.1056452e+01   6.9622903e+01   6.8242581e+01   6.6933226e+01   6.5694839e+01   6.4509677e+01   6.3282618e+01   6.1914715e+01   6.0405968e+01   5.8863648e+01   5.7381104e+01   5.5958337e+01   5.4575710e+01   5.3304211e+01   5.2143841e+01   5.1084349e+01   5.0037079e+01   4.9006106e+01   4.8067046e+01   4.7207679e+01   4.6467143e+01   4.5793393e+01   4.5186429e+01   4.4603036e+01   4.4019643e+01   4.3436250e+01   4.4320179e+01   4.6489512e+01   4.9638774e+01   5.2213482e+01   5.4377770e+01   5.6437114e+01   5.8478675e+01   6.0520236e+01   6.2561796e+01   6.4603357e+01   6.6654425e+01   6.3058773e+01   4.0843800e+01
0.0000000e+00   0.0000000e+00   0.0000000e+00   0.0000000e+00   0.0000000e+00   0.0000000e+00   0.0000000e+00   0.0000000e+00   0.0000000e+00   0.0000000e+00   0.0000000e+00   0.0000000e+00   0.0000000e+00   0.0000000e+00   0.0000000e+00   0.0000000e+00   0.0000000e+00   0.0000000e+00   0.0000000e+00   0.0000000e+00   0.0000000e+00   0.0000000e+00   0.0000000e+00   0.0000000e+00   0.0000000e+00   0.0000000e+00   0.0000000e+00   0.0000000e+00   0.0000000e+00   0.0000000e+00   0.0000000e+00   0.0000000e+00   0.0000000e+00   0.0000000e+00   0.0000000e+00   0.0000000e+00   0.0000000e+00   0.0000000e+00   0.0000000e+00   0.0000000e+00   0.0000000e+00   0.0000000e+00   0.0000000e+00   0.0000000e+00   0.0000000e+00   0.0000000e+00   0.0000000e+00   0.0000000e+00   3.0140000e+00   7.2985000e+00   1.2046833e+01   1.4615333e+01   1.7040833e+01   2.0086786e+01   2.3382857e+01   2.6385595e+01   2.9013155e+01   3.1140476e+01   3.2767560e+01   3.4019464e+01   3.1923571e+01   3.1411875e+01   3.2484375e+01   3.8305625e+01   4.4327500e+01   5.0550000e+01   5.7040000e+01   6.3170625e+01   6.7961875e+01   7.0867292e+01   7.2380000e+01   7.3516667e+01   7.4690000e+01   7.5936667e+01   7.7220000e+01   7.8540000e+01   7.9860000e+01   8.0755714e+01   8.1227143e+01   8.1258571e+01   8.1211429e+01   8.1022857e+01   8.0661429e+01   8.0142857e+01   7.9530000e+01   7.8974762e+01   7.8629048e+01   7.8597619e+01   7.8775714e+01   7.9003109e+01   7.9119580e+01   7.9069664e+01   7.8696681e+01   7.7991618e+01   7.6548676e+01   7.5279979e+01   7.4983333e+01   7.5704444e+01   7.6040265e+01   7.5402381e+01   7.4351270e+01   7.3638307e+01   7.3035438e+01   7.2201567e+01   7.1088387e+01   6.9814516e+01   6.8593871e+01   6.7444194e+01   6.6365484e+01   6.5340000e+01   6.4223077e+01   6.2852308e+01   6.1227692e+01   5.9506042e+01   5.7755927e+01   5.5977347e+01   5.4208208e+01   5.2840277e+01   5.1757219e+01   5.0891238e+01   4.9908921e+01   4.8926603e+01   4.8006546e+01   4.7148750e+01   4.6365000e+01   4.5616607e+01   4.4903571e+01   4.4237679e+01   4.3607143e+01   4.3011964e+01   4.3823724e+01   4.5741958e+01   4.8498767e+01   5.0726355e+01   5.2729029e+01   5.4774688e+01   5.6835979e+01   5.8897269e+01   6.0958560e+01   6.3019851e+01   6.5085331e+01   6.1199114e+01   3.9505400e+01
